ncols         215
nrows         49
xllcorner     0
yllcorner     4664
cellsize      8
NODATA_value  -9999
138.2155 138.0147 138.3854 138.1522 138.4905 138.2062 138.3466 138.1119 137.8088 137.8301 137.305 137.2533 136.641 136.5079 135.815 135.6145 134.8403 134.7066 133.711 133.5319 132.4214 131.4933 131.2377 129.9789 129.6439 127.8246 126.261 125.6829 124.6022 123.2916 122.2871 120.6643 119.6531 117.4874 116.7211 115.5939 114.2427 113.0993 111.1918 109.6354 109.1978 105.6164 100.689 97.95244 92.58942 89.54315 87.0789 81.35731 79.38015 74.03554 72.46423 69.83215 66.01902 63.22009 59.29188 56.54432 53.64564 52.85149 52.76345 52.22092 52.44392 52.39611 52.01757 50.95105 50.61275 50.76856 51.10571 50.06412 50.03834 50.45659 51.09385 51.44382 51.75056 52.7071 53.59303 55.16811 53.2822 53.707 58.41243 60.30137 62.65527 64.22708 64.79038 67.30167 68.91724 70.32285 71.55879 71.68916 71.6804 71.80711 71.76775 71.67464 71.12942 70.35942 70.54675 70.22352 70.99551 71.00536 71.53282 72.29253 72.8647 73.81503 74.41205 74.90736 76.13648 76.75323 77.96683 78.66551 79.8187 80.56152 82.38557 83.1667 84.10675 84.87453 85.30112 86.45403 86.83017 87.90411 88.23346 89.22884 89.51555 90.17584 90.68379 91.30866 91.74707 92.33777 92.53044 93.439 94.12634 94.26813 94.90559 95.39965 95.51215 96.09004 96.18625 96.72672 96.80907 97.24382 97.38765 97.80436 97.92815 98.32898 98.43594 98.82259 99.28983 99.33102 99.73483 99.77126 100.1282 100.1937 100.542 100.6013 100.9421 101.3057 101.3309 101.6631 101.7103 102.0373 102.0824 102.4049 102.4266 102.7886 103.1258 103.1471 103.4816 103.5032 103.8145 103.8579 104.1671 104.2119 104.5195 104.5657 104.872 104.8956 105.225 105.5299 105.5793 105.8834 106.2386 106.2653 106.5958 106.6238 106.9552 106.9845 107.2868 107.3473 107.6494 107.7125 108.0142 108.0467 108.3815 108.4153 108.7513 108.7865 109.1234 109.4609 109.7987 109.8363 110.1752 110.2141 110.5146 110.5939 110.894 110.9757 111.2754 111.3594 111.6586 111.7014 112.0435 112.0874 112.4299 112.4747 112.8634 113.1606 113.2534
138.5885 138.9708 138.7807 139.1429 138.9109 139.0704 138.9205 139.0334 138.7939 138.3477 138.3449 137.7992 137.7275 137.101 136.969 136.2575 136.0485 135.245 134.4038 134.0358 133.1194 132.6129 131.6327 131.3109 129.9141 127.9165 127.3507 125.5227 124.805 123.6467 121.9975 120.8103 118.5098 117.2593 115.8837 113.64 112.3446 110.6948 109.1425 106.6929 106.1825 104.2281 98.85912 94.33957 91.34653 88.96843 82.88059 80.66544 75.03331 73.07794 67.15511 65.59757 62.57893 58.42725 55.88149 53.49196 52.70641 52.71349 52.63955 52.34503 52.23764 51.72652 51.13835 50.61722 50.19619 50.5166 50.27275 50.27098 50.77007 51.5932 51.9166 51.80117 51.96714 54.09631 54.22262 54.5983 53.52242 57.19632 59.36193 64.32642 64.56805 64.61591 65.78017 67.43205 70.19825 71.27187 71.77303 71.84225 71.85984 72.19974 72.56434 72.19825 72.14174 71.72057 71.18592 71.69551 71.50545 71.91769 72.42598 72.91721 73.66325 74.19241 75.1188 75.67415 76.17084 77.32423 77.89928 79.11656 79.66613 80.36696 82.13074 83.08244 83.80782 84.66611 85.38 85.7709 86.8394 87.18547 88.18448 88.48872 89.14075 89.68422 90.30525 90.77821 91.36819 91.7784 92.3383 93.22462 93.74985 94.03625 94.535 94.66065 95.25616 95.36429 95.92134 96.01451 96.53768 96.61813 97.03976 97.18137 97.58672 97.70981 98.10071 98.15515 98.63412 99.0477 99.09007 99.48862 99.84262 99.87766 100.2581 100.2899 100.6601 100.6894 101.0511 101.0785 101.4072 101.4589 101.7829 101.8327 102.1525 102.5174 102.5412 102.8787 102.9026 103.2378 103.2619 103.5715 103.62 103.9278 104.2593 104.2839 104.5899 104.6402 104.945 104.9973 105.3012 105.3556 105.6869 106.0183 106.0475 106.3798 106.4102 106.7124 106.775 107.0768 107.142 107.4436 107.5114 107.8126 107.8475 108.1841 108.2203 108.5581 108.8589 109.2349 109.2734 109.6131 109.653 109.9937 110.0347 110.3347 110.4183 110.718 110.8038 111.1031 111.1469 111.4901 111.5349 111.8786 111.9243 112.2685 112.6126 112.7074 113.0041
139.4817 139.3316 139.7102 139.5267 139.8663 139.6279 139.7646 139.5674 139.302 139.3285 138.8492 138.8402 138.284 137.6346 137.5809 136.8084 136.7116 135.9245 135.6216 134.7361 134.2781 133.3072 132.6727 131.6248 131.2249 129.1206 127.276 126.5628 125.2769 123.6227 122.3088 120.1169 118.591 115.5629 114.0855 113.008 110.4504 109.8481 106.3995 105.4267 103.3216 100.6033 95.01102 92.27208 87.45336 84.41259 82.17078 76.2575 74.15952 67.84752 65.78716 62.45097 57.83693 55.33144 53.13907 52.5629 52.5628 52.5627 52.56262 52.2698 51.6386 51.05959 50.12929 50.00772 50.19946 50.43152 50.54234 51.79142 51.9288 52.21288 52.03534 51.99236 52.43037 53.01339 53.23699 53.26283 55.83822 57.81419 63.40602 64.8903 65.16135 64.77815 65.63232 67.89223 69.57288 71.02708 71.88759 71.9179 72.04517 72.26077 73.04946 73.12125 72.785 72.3844 72.60432 72.25798 72.83377 72.76123 73.15665 73.69205 74.14893 74.89265 75.24779 75.77272 76.76822 77.30409 78.39381 78.91991 80.05424 80.55479 82.16015 82.83537 83.70383 84.38033 84.7807 85.83228 86.19106 87.18417 87.50294 88.43454 88.71579 89.32843 89.83273 90.41818 91.21303 91.41724 91.97098 92.85983 93.17378 93.6753 93.94725 94.42534 94.54541 95.11765 95.22166 95.75917 95.84951 96.35645 96.43504 96.84427 96.98378 97.37833 97.5007 97.88223 98.36015 98.72673 98.81586 99.17264 99.25274 99.60096 99.63757 100.0145 100.0481 100.4157 100.447 100.7773 100.8362 101.1614 101.2176 101.5384 101.5928 101.9363 102.2771 102.3033 102.6412 102.6675 102.9773 103.3119 103.3378 103.6711 103.6975 104.03 104.0571 104.3618 104.4171 104.7209 104.778 105.081 105.4427 105.4732 105.8062 105.8379 106.1717 106.2046 106.506 106.5734 106.8746 106.9445 107.2454 107.5464 107.6186 107.9194 107.9942 108.2948 108.3721 108.712 109.0524 109.0931 109.4345 109.4765 109.8189 109.862 110.1616 110.2494 110.5486 110.6386 110.9375 110.9833 111.3279 111.3746 111.7199 112.0177 112.4104 112.4588 112.8043
139.8078 140.1964 140.0575 140.4208 140.2375 140.5362 140.2839 140.3915 140.199 139.8197 139.3521 139.3557 138.8122 138.7946 138.1383 138.084 137.268 137.1472 136.3137 135.9242 134.9807 134.4032 133.3654 132.9943 131.4518 129.1526 128.488 126.3596 125.5242 124.0927 122.0657 120.4426 117.2812 115.635 113.9066 110.8095 109.9221 106.7313 105.499 100.7708 99.70265 97.4466 92.03256 88.10984 85.23093 80.49826 77.51126 75.39396 68.92062 66.62878 59.63147 57.79371 55.21925 53.05097 52.786 52.84992 52.77938 52.67521 52.36309 51.71095 51.06934 50.19078 49.99394 49.9387 50.34496 50.71119 51.69896 51.95154 52.13457 52.0797 51.88212 52.05409 52.35194 53.27467 53.42794 53.44098 56.17219 61.1027 63.60776 65.55438 65.13534 64.89088 66.89532 66.97298 68.32652 70.23194 71.02165 71.75886 71.80581 72.25448 72.47688 73.14798 73.27522 73.35754 73.08723 73.4234 73.26168 73.16556 73.8829 73.97722 74.82607 75.07283 76.00482 76.37722 76.86734 77.8242 78.31868 79.34692 79.82869 80.41679 81.96462 82.83014 83.46329 84.25784 84.89126 85.25833 86.236 86.56586 87.49143 88.10291 88.65619 89.2449 89.49368 90.29706 90.51541 91.265 91.45601 92.3221 92.82422 93.12083 93.60062 93.85918 94.31819 94.43297 94.98358 95.08374 95.60307 95.6907 96.10312 96.25926 96.65685 96.79425 97.17865 97.61693 98.04242 98.14351 98.5028 98.5937 98.94409 98.98563 99.36926 99.40733 99.78087 99.81613 100.1812 100.2143 100.5407 100.6035 100.9254 100.9857 101.3035 101.6767 101.7054 102.0461 102.3571 102.4128 102.7216 102.7494 103.0847 103.1129 103.447 103.4758 103.7804 103.8388 104.1424 104.2025 104.5051 104.5671 104.9008 105.2347 105.2676 105.6021 105.6361 105.9715 106.0067 106.3074 106.6437 106.6799 107.0173 107.0548 107.3552 107.4319 107.7322 107.8115 108.1115 108.493 108.5347 108.8768 108.9197 109.2628 109.3068 109.6063 109.696 109.9951 110.0869 110.3857 110.4797 110.7782 111.0765 111.172 111.4699 111.5673 111.914 112.2606 112.3109
140.6049 140.5071 140.886 140.7532 141.0843 140.8936 140.6637 140.8714 140.6734 140.2787 140.3404 139.8719 139.8877 139.3511 139.34 138.6536 138.5803 137.8193 137.5171 136.6236 136.1195 135.1094 134.4043 133.2859 132.8369 130.4972 128.4269 127.6467 125.228 123.6525 122.5681 119.4758 117.9136 114.0136 112.1062 110.4882 107.0072 105.8548 101.0351 99.57883 94.49013 93.60913 87.71762 84.9576 80.95555 78.09513 76.44168 70.01737 67.74975 60.55871 58.40693 54.32538 53.05863 52.76611 52.84968 52.95484 52.98153 52.80618 52.52792 51.08402 50.23433 50.50321 50.24575 50.26119 50.58824 51.71569 51.63145 51.76243 52.02497 51.83585 52.13502 52.47787 52.75566 53.31621 53.6405 53.86878 58.32867 60.72185 65.03389 65.48351 65.18037 65.88952 67.0016 68.02496 68.22326 70.64452 71.22463 71.48819 71.78146 71.92495 72.55106 72.92652 73.26894 73.5955 73.60356 73.78363 73.90877 74.18948 74.19352 74.89358 75.04393 75.85391 76.13295 77.01149 77.39612 77.85278 78.76978 79.22591 80.19647 80.63863 82.04919 82.63438 83.42729 84.02293 84.75182 85.34686 85.95229 86.59556 87.18826 87.76407 88.33951 88.60058 89.407 89.63799 90.39427 90.59782 91.30615 91.98546 92.30557 92.78511 93.0658 93.5256 93.65088 94.21313 94.323 94.85358 94.95014 95.45252 95.8578 95.93755 96.40635 96.47682 96.92445 96.98711 97.47226 97.83379 97.93584 98.28819 98.38072 98.72504 98.76767 99.14709 99.1865 99.55674 99.59359 99.9212 99.99091 100.3136 100.3801 100.6986 101.0469 101.3921 101.4527 101.764 101.8242 102.1331 102.1933 102.5002 102.5303 102.8661 102.8966 103.2316 103.2626 103.5659 103.629 103.9313 103.9961 104.2976 104.6653 104.6993 105.0346 105.3353 105.4058 105.7062 105.7422 106.0792 106.1164 106.4543 106.4928 106.8318 106.8715 107.1714 107.2525 107.5522 107.6357 107.978 108.3206 108.3645 108.7081 108.7531 109.0977 109.1438 109.4428 109.7881 109.8351 110.1812 110.2292 110.5276 110.6251 110.9229 111.0223 111.3196 111.7176 111.7688 112.1168
140.8793 141.2663 141.1797 141.2389 141.4004 141.365 141.4843 141.2408 141.0856 141.1995 140.8078 140.9011 140.4346 140.464 139.9152 139.8923 139.1349 139.0202 138.1997 137.7875 136.8265 136.2063 135.1231 134.2876 133.0677 130.5775 129.1354 127.5256 125.8878 124.8795 121.8892 120.4725 116.5717 114.5687 109.9872 107.6659 106.0817 101.1955 99.8288 94.3894 93.08406 90.53286 84.22348 80.4128 77.64664 73.63223 72.02309 68.66883 62.86082 59.3432 54.7295 53.19887 52.78976 52.72331 52.79887 52.77763 52.87448 51.99488 51.72983 50.40148 50.99896 50.98153 50.51135 50.36216 51.71409 51.88984 51.7289 51.66962 52.15488 52.77477 52.76801 53.03319 52.66304 53.45205 53.99797 54.25589 56.72993 61.79991 63.52422 65.32746 65.6497 66.16919 68.87463 68.9058 70.51074 70.88544 71.51216 71.61103 71.71454 72.19866 72.52805 73.29986 73.49036 73.9364 74.13192 74.29219 74.51797 74.76337 75.05226 75.13017 75.81523 76.01353 76.7883 77.09386 77.50816 78.31331 78.73853 79.61606 80.03752 80.95486 81.89629 82.67746 83.23169 84.16933 84.52198 85.09738 85.75264 86.32234 86.91496 87.47324 88.00515 88.54818 88.79001 89.54816 89.76291 90.47636 90.66643 91.50496 91.98222 92.28388 92.74274 93.00869 93.45018 93.56953 94.11 94.53181 94.72736 95.13411 95.22189 95.70021 95.77805 96.23447 96.30385 96.74106 97.16647 97.27976 97.63375 97.7365 98.08231 98.17638 98.51485 98.55853 98.93391 98.97459 99.34163 99.37996 99.70348 100.0606 100.0955 100.4472 100.481 100.8613 101.1728 101.2375 101.5465 101.6109 101.9177 101.9498 102.2873 102.3196 102.6559 102.6887 103.0244 103.0577 103.3596 103.4273 103.7283 103.7977 104.3987 104.4693 104.7695 104.8422 105.1421 105.217 105.5166 105.5549 105.8933 105.9328 106.2722 106.3129 106.6123 106.6954 106.9947 107.0801 107.3792 107.7661 107.8108 108.155 108.2008 108.546 108.8449 108.8917 109.2378 109.2857 109.6326 109.6815 110.029 110.0789 110.3768 110.478 110.7755 110.8784 111.2802 111.5765 111.6294
141.3297 141.5216 141.6358 141.8091 141.8473 141.9856 141.9191 142.0198 141.9314 141.6161 141.7635 141.3816 141.4466 141.035 141.0613 140.4581 140.3992 139.537 139.3683 138.4804 137.9568 136.928 135.4599 135.0352 133.8114 131.3441 129.9359 128.2964 126.3154 124.4159 123.1039 119.3837 117.5054 112.5662 109.9162 107.2512 101.7223 99.98345 94.54744 93.07024 87.61469 86.38749 79.71004 78.63206 73.08447 71.94586 68.82961 63.65002 60.18079 55.34495 53.48969 52.69522 52.59452 52.59569 52.39249 52.5256 51.58231 51.42625 50.91261 51.02839 52.00011 51.46989 50.66425 51.3738 51.87953 52.08817 51.83972 52.11463 52.94066 53.43193 53.21668 53.27652 53.68575 53.60262 55.61317 55.51655 57.42025 59.0302 63.64602 64.99027 67.19511 67.64927 68.97647 70.03596 70.59866 71.08991 71.48918 71.67371 72.06008 72.18745 73.25327 73.44808 73.99103 74.29053 74.55472 74.77135 74.99875 75.23814 75.28152 75.85117 75.98921 76.65858 76.89703 77.63754 77.96378 78.35417 79.13866 79.53499 80.37464 80.85393 82.14397 82.51939 83.41344 83.76482 84.64227 84.96683 85.50998 86.11346 86.65105 87.19798 87.72526 87.97591 88.73117 88.95552 89.66998 89.87003 90.54454 91.19522 91.5164 91.97255 92.56435 92.6973 93.25668 93.37444 93.79636 94.00859 94.41602 94.60443 94.99852 95.08363 95.54822 95.62424 96.06908 96.13733 96.62648 96.9817 97.09483 97.4417 97.54523 97.88474 97.93275 98.31317 98.64462 98.72932 99.05528 99.13519 99.45638 99.49446 99.84955 99.8862 100.2364 100.5836 100.6532 100.962 101.0308 101.3375 101.406 101.7108 101.7449 102.0826 102.1171 102.4539 102.4889 102.7903 102.8607 103.1613 103.4973 103.5332 103.9063 104.2059 104.281 104.5802 104.6574 104.9564 104.9957 105.3345 105.3749 105.7148 105.7564 106.0973 106.1402 106.4389 106.5263 106.825 106.9146 107.305 107.6035 107.9021 107.9959 108.2944 108.3905 108.6889 108.7377 109.0851 109.135 109.4832 109.534 109.883 109.9348 110.2321 110.337 110.6339 111.037 111.0909 111.4411
141.9734 141.9442 142.1249 142.2272 142.3801 142.3937 142.5132 142.3337 142.2948 142.4877 142.1888 142.3803 142.0028 142.0738 141.6289 141.6268 140.9314 140.1874 140.0311 138.9303 138.6647 137.3174 136.9568 135.3531 134.8766 132.3509 130.7816 129.0433 127.1068 125.8718 122.2197 120.4867 115.8116 113.2931 107.1448 104.0788 101.1507 95.3751 93.39572 89.01802 86.28493 84.91116 78.12907 72.61021 71.3551 65.28648 63.76311 60.46883 55.98427 53.89196 52.67429 52.63087 52.46432 52.33341 52.17916 51.5182 51.12675 50.99952 51.31588 51.95729 51.88229 50.52557 50.73307 52.00566 52.21294 52.14167 51.7225 52.10788 53.42948 53.19538 53.14199 53.88088 54.32436 56.18607 56.61474 59.31023 59.4373 59.95395 61.2789 65.68912 67.08087 67.38931 68.35841 69.46397 70.72608 71.01858 71.65468 72.05811 72.47552 73.67417 73.65874 74.37434 74.2543 74.72093 74.9373 75.17825 75.38788 75.66838 75.91179 76.01839 76.58929 76.77845 77.432 77.70286 78.05652 78.75212 79.12674 79.88274 80.30933 81.05624 81.88535 82.73055 83.07698 83.91705 84.24097 85.06394 85.36313 85.87704 86.43396 86.94249 87.44815 87.94738 88.17958 88.89084 89.09938 89.77417 89.96072 91.05869 91.21798 91.8153 91.95706 92.52295 92.64915 93.06986 93.29829 93.70517 93.90876 94.3028 94.48476 94.86693 94.94962 95.4014 95.47578 95.90974 96.3329 96.45647 96.80405 96.91713 97.2573 97.64574 97.69503 98.02715 98.11954 98.44601 98.5329 98.85445 98.89578 99.25421 99.29379 99.64696 99.68523 100.0712 100.38 100.4532 100.7596 100.8322 101.1367 101.1727 101.5118 101.5479 101.8859 102.1874 102.2598 102.5603 102.5968 102.9335 102.9707 103.3076 103.6831 103.7222 104.0207 104.1001 104.3985 104.4799 104.778 104.8195 105.1596 105.2022 105.5434 105.5872 105.9296 105.9745 106.2726 106.6162 106.6621 107.0537 107.3519 107.4475 107.7455 107.8434 108.1414 108.2414 108.5392 108.5898 108.9387 108.9904 109.3399 109.3926 109.6899 109.7966 110.0934 110.2018 110.6084 110.9044 111.2001
142.1692 142.3532 142.5104 142.6731 142.7574 142.8915 142.8954 143.0114 143.0735 142.8548 143.0977 142.8141 142.9232 142.6323 142.1679 142.1642 141.5347 141.3121 140.5034 140.2951 139.0896 138.7917 137.3481 136.9552 135.2155 133.2359 131.8294 129.9629 127.5909 125.2221 123.5621 119.1114 116.9263 111.1297 108.2722 101.4061 98.01707 95.07302 89.75709 87.00761 82.47398 79.86071 72.99221 71.3135 65.51645 63.68215 57.44426 56.09422 54.0427 52.65184 52.43452 52.37488 52.36456 52.37291 51.65184 51.20234 50.94722 51.29028 51.94427 52.00993 50.96543 50.30311 51.52299 51.99588 52.01906 51.77372 51.87623 52.40099 52.50681 52.66923 53.18499 53.87646 55.9626 56.88181 60.28368 60.83745 62.03711 62.60291 63.06972 64.65445 67.10976 67.20684 67.75589 69.23458 69.90232 71.09063 70.98759 71.58848 72.83147 74.01613 74.842 74.73805 74.97334 75.08373 75.28915 75.46935 75.73659 75.9438 76.28904 76.53836 76.70235 77.19415 77.50652 78.1022 78.44051 78.76514 79.46883 79.84698 80.55562 80.97496 82.11935 82.45757 83.25606 83.57633 84.36709 84.66626 85.15411 85.71594 86.20326 86.71811 87.2003 87.66857 88.14236 88.61964 89.02927 89.49442 89.86221 90.48187 91.08225 91.23216 91.80238 91.93649 92.47849 92.59841 93.00362 93.22177 93.6148 93.81048 94.19217 94.28135 94.73922 94.81966 95.25952 95.33235 95.82249 96.17026 96.57538 96.63328 97.02657 97.08009 97.41254 97.51274 97.83949 97.9335 98.2552 98.34422 98.6616 98.70416 99.06013 99.10112 99.45235 99.83943 99.87838 100.1845 100.2612 100.5652 100.6414 100.9437 101.2459 101.3207 101.6216 101.6971 101.997 102.0735 102.3724 102.411 102.7485 102.7878 103.1658 103.4637 103.5454 103.843 103.9266 104.2239 104.3095 104.6068 104.6504 104.9918 105.0365 105.379 105.6766 105.7223 106.0662 106.113 106.4579 106.8519 106.9008 107.1984 107.298 107.5955 107.6973 107.9946 108.0462 108.3956 108.4481 108.7982 108.8518 109.2028 109.2573 109.554 109.6641 109.9605 110.3684 110.6642 110.7773
142.6783 142.7022 142.8707 143.0161 143.1605 143.237 143.3649 143.3906 143.3803 143.3305 143.4681 143.3469 143.4608 143.1091 143.2153 142.7091 142.613 141.9249 141.6049 140.7407 140.5045 139.235 138.9275 137.3837 136.9647 134.4965 132.8156 130.9539 128.6052 125.3832 122.5033 120.5388 115.3934 111.9741 106.4476 102.296 99.29015 92.44285 89.57767 83.92159 81.31632 76.67284 72.25633 66.91365 64.56493 58.32809 56.3251 54.08437 52.69115 52.52735 52.07071 51.85471 52.13396 51.79155 51.39107 50.65374 51.2918 52.0916 52.18392 51.22091 50.86186 51.28111 51.28707 51.63684 51.92562 52.09187 52.51954 53.03021 53.03131 53.63123 53.61059 55.52267 56.28137 59.40029 60.98374 64.61161 63.98847 64.87634 64.29548 67.11806 66.86786 68.78642 68.7312 68.96274 70.17847 70.91725 70.8691 70.89118 71.78056 73.3731 74.77742 75.13046 75.12095 75.34074 75.46947 75.72636 75.90117 76.24022 76.38741 76.62535 77.06683 77.34433 77.87587 78.18335 78.79376 79.11926 79.45541 80.12283 80.50082 81.16603 81.90392 82.65825 82.97221 83.7273 84.02389 84.76926 85.04595 85.51006 86.02978 86.4928 87.19917 87.42773 87.89078 88.31297 88.76697 89.14852 89.59192 90.36774 90.52498 91.09727 91.23868 91.78404 91.91107 92.31337 92.54533 92.93629 93.14503 93.5253 93.71362 94.08386 94.17017 94.61516 94.97456 95.12221 95.60792 95.95108 96.01357 96.41119 96.46896 96.85593 96.90964 97.23633 97.33755 97.65919 97.75478 98.07196 98.16305 98.47633 98.5201 98.87376 98.91608 99.30669 99.61223 99.957 99.99665 100.3391 100.3784 100.7191 100.7585 101.0587 101.1373 101.4364 101.5159 101.8141 101.8541 102.1921 102.2327 102.5709 102.951 102.9932 103.29 103.3758 103.6724 103.76 104.0565 104.3533 104.4425 104.7393 104.8308 105.1277 105.2214 105.5183 105.566 105.9112 105.9599 106.356 106.6531 106.7543 107.0514 107.1548 107.4518 107.5571 107.854 107.9073 108.258 108.3124 108.6638 108.7191 109.0715 109.3678 109.4238 109.7764 110.1863 110.244 110.5394
142.8085 143.1422 143.1761 143.3267 143.4661 143.6016 143.6982 143.6274 143.8104 143.9668 143.9646 144.113 143.9818 144.0732 143.6929 143.7184 143.1629 142.9715 142.2325 142.0597 140.9767 140.7488 139.4269 139.107 137.436 135.4752 134.1052 132.0838 128.2911 126.6196 123.4803 119.6842 116.4538 111.7668 107.7841 102.27 97.67452 94.6695 87.52907 84.73096 78.88954 76.43053 69.07764 66.55524 60.48327 57.76017 53.0274 52.44397 52.20246 52.29277 52.02712 51.47221 51.70307 51.36026 50.57203 51.24237 52.13968 52.3125 52.02964 50.91954 50.83185 51.48391 51.78074 51.76611 53.813 53.95047 55.10835 55.1534 55.92212 55.57868 56.26327 56.09145 57.9164 59.5613 63.36808 65.08046 66.69432 66.15823 67.30216 68.16481 69.61953 69.85568 70.63534 69.29515 69.38412 70.72703 70.6618 70.81483 70.96228 72.16639 73.58297 74.86611 75.06131 75.32327 75.59769 75.75752 76.10493 76.28798 76.72662 76.92937 77.18047 77.67447 77.9557 78.5154 78.8173 79.12035 79.7467 80.0887 80.72165 81.09628 82.12088 82.4265 83.14369 83.43549 84.14996 84.42488 84.86433 85.57463 85.82697 86.51715 86.74925 87.4156 87.62782 88.06876 88.46153 88.89438 89.2506 89.99644 90.41 90.55801 91.10463 91.23822 91.76071 91.88132 92.26905 92.49022 92.86801 93.06816 93.4366 93.89204 93.97784 94.33629 94.49449 94.84465 95.33189 95.39896 95.80054 95.86249 96.25313 96.31075 96.69173 96.74562 97.0669 97.16911 97.48592 97.58308 97.89597 97.94254 98.29836 98.34326 98.69465 99.08587 99.38961 99.43133 99.77504 99.81631 100.1581 100.1992 100.4987 100.5806 100.8789 100.9613 101.2587 101.3419 101.6386 101.6805 102.019 102.0616 102.4438 102.7397 102.8276 103.1234 103.4638 103.5087 103.85 103.8959 104.1918 104.2851 104.5811 104.6765 104.9727 105.0703 105.3666 105.4161 105.7625 106.1609 106.2126 106.5091 106.614 106.9106 107.0175 107.314 107.4229 107.7193 108.0158 108.1264 108.4227 108.5353 108.8314 108.8884 109.2417 109.2993 109.7116 110.0659 110.1252
143.1661 143.2438 143.3967 143.5895 143.6097 143.8855 143.8769 144.1794 144.3142 144.4165 144.5908 144.6014 144.735 144.4774 144.613 144.1952 144.1299 143.5296 143.3025 142.5399 142.386 141.2911 141.0688 139.6475 139.2834 135.8562 135.1538 132.1736 130.9414 126.273 124.3552 120.9876 117.0197 113.2528 108.2912 103.9747 101.041 93.20443 90.12243 82.92271 80.09612 74.2029 68.97228 63.16978 60.23678 54.41011 52.66907 51.59179 51.69109 52.17267 51.90734 51.43591 50.67673 50.46441 51.14307 52.09657 52.26265 52.17025 51.83683 50.3398 50.92341 51.62682 51.8257 53.97279 54.83326 56.49239 57.66558 58.59401 58.59443 57.19299 58.07564 57.53636 58.34906 61.58945 63.72225 66.36385 66.82036 67.08727 67.35856 69.45375 70.08215 70.94627 70.7682 70.17167 69.48785 69.69852 70.2937 70.41152 70.7112 71.0843 72.54528 74.58392 74.72743 75.26256 75.5252 75.83351 76.08324 76.50023 76.7401 76.97705 77.46663 77.72984 78.26093 78.54366 79.1192 79.41408 79.72722 80.32845 80.67152 81.27092 82.22559 82.61411 83.01753 83.58108 83.99689 84.52885 84.95184 85.20409 85.87477 86.10872 86.7605 86.97597 87.60596 87.8034 88.2241 88.59039 89.00397 89.74279 89.89653 90.4424 90.58185 91.10492 91.23131 91.73293 92.11176 92.22202 92.69896 92.79909 93.25774 93.34888 93.70564 93.87404 94.22292 94.37704 94.86043 95.19534 95.26144 95.65529 95.71674 96.10075 96.15827 96.47894 96.5878 96.90395 97.00719 97.31941 97.67909 97.72676 98.03518 98.12733 98.43295 98.82567 98.86951 99.21442 99.25761 99.60034 99.64322 99.98436 100.0271 100.3246 100.41 100.7064 100.7924 101.0881 101.175 101.4702 101.514 101.8531 102.2371 102.5322 102.5772 102.9177 102.9636 103.3049 103.3518 103.6941 103.742 104.0371 104.1342 104.4295 104.5288 104.8242 104.8747 105.2212 105.2726 105.6729 106.0218 106.0753 106.3712 106.4799 106.7758 107.1268 107.1822 107.4783 107.5906 107.8865 108.0007 108.2965 108.4125 108.7081 108.7667 109.1211 109.5353 109.5955 109.8903
143.2256 143.4716 143.6149 143.684 143.9607 144.0076 144.3108 144.3433 144.708 144.899 145.0355 145.2029 145.187 145.2903 145.0094 145.0622 144.6071 144.4998 143.8878 143.804 142.9422 142.0582 141.6504 140.5305 139.8008 137.8105 135.3487 134.3899 130.8557 129.2645 123.7735 121.5658 118.2668 113.2957 109.6256 103.881 99.44488 96.15231 88.32057 85.08296 77.93812 74.91058 65.99843 62.90025 56.85747 54.13627 51.05836 50.475 51.17332 51.93989 51.86201 51.16668 50.83207 51.79532 51.9839 52.1192 52.04852 51.83973 51.04031 50.33979 51.37327 51.57289 53.91209 54.81275 58.35966 58.64782 58.70935 60.34412 60.12045 61.1077 59.62655 59.82305 59.8838 61.65588 65.78664 66.8725 67.84482 67.69835 68.69849 69.7407 71.13825 70.8977 70.70939 70.03227 69.98589 69.81771 70.01908 70.59293 70.78606 70.77362 72.35494 73.00792 74.34694 75.17987 75.36583 75.72351 76.15784 76.4603 76.94833 77.22106 77.47818 78.00719 78.27804 78.82965 79.1105 79.69034 79.97627 80.29333 80.8681 81.20844 82.13513 82.51004 83.06097 83.45035 83.97491 84.37405 84.86832 85.27313 85.50734 86.14162 86.35893 86.97557 87.17599 87.58296 87.957 88.35922 88.70146 89.41003 89.79912 89.94376 90.46558 90.8481 91.09879 91.4731 91.58876 92.06735 92.17273 92.63348 92.72964 93.17407 93.26205 93.60895 93.77235 94.11234 94.59633 94.66653 95.06313 95.12836 95.51501 95.57602 95.95388 96.01129 96.3266 96.69455 96.74725 97.10892 97.1593 97.51564 97.56418 97.8688 97.9631 98.35739 98.65747 98.70259 99.04616 99.09084 99.43271 99.47713 99.81766 99.86205 100.1575 100.2462 100.541 100.6304 100.9246 101.2191 101.3088 101.603 101.988 102.0806 102.3745 102.4214 102.7627 102.8104 103.1528 103.2015 103.4957 103.5945 103.8889 103.9899 104.2844 104.3874 104.6822 104.7344 105.0821 105.4843 105.7797 105.8339 106.1842 106.2394 106.5907 106.6469 106.9991 107.0564 107.3519 107.4677 107.763 107.8806 108.1759 108.2353 108.5903 108.6505 109.067 109.4229 109.4847
143.4086 143.5491 143.6621 143.9324 144.0283 144.3217 144.4118 144.7662 145.0456 145.2894 145.4818 145.6109 145.7527 145.6926 145.7586 145.4507 145.4505 144.9914 144.3956 144.3484 143.6317 143.3881 142.455 141.9614 140.7229 138.0655 137.215 134.1634 132.8066 128.3526 125.9573 122.5357 117.3066 114.0499 108.4628 104.7877 97.98073 93.76602 90.24466 82.55518 78.56033 72.01001 65.55701 59.3415 56.25809 51.93934 50.62874 50.20623 50.80963 51.73627 50.87451 51.10765 51.60165 51.89782 52.10854 52.01089 51.84557 51.25387 50.59735 51.1124 51.59705 53.10484 54.84897 57.51496 59.0437 59.55415 60.90779 60.82164 62.19753 62.29853 62.71614 61.31788 61.31538 63.61011 65.50424 67.53653 69.3427 69.86819 68.62041 70.42044 71.02952 70.96918 70.63418 70.32551 70.35233 70.02414 70.27472 70.5211 70.65575 70.66181 70.8757 72.66261 73.19337 74.65099 75.15897 75.67964 76.06244 76.59448 76.91278 77.44845 77.73326 78.00214 78.54927 78.82198 79.37955 79.67245 79.95198 80.54222 80.82103 81.42862 82.32159 82.58716 82.95083 83.46545 83.84077 84.32929 84.71252 84.94548 85.55995 85.77768 86.37851 86.58067 87.16527 87.35205 87.74153 88.09073 88.4761 89.1767 89.55922 89.84442 90.22017 90.48055 90.8492 91.08711 91.44864 91.5589 92.02056 92.12143 92.56726 92.65977 93.09106 93.17621 93.51392 93.67275 94.15137 94.47744 94.54634 94.93512 94.9996 95.37953 95.69559 95.81226 96.12421 96.17983 96.54332 96.59642 96.95427 97.00526 97.30899 97.40782 97.70899 98.10439 98.19867 98.4959 98.54231 98.88472 98.93083 99.27185 99.31776 99.61214 99.70365 99.99724 100.3365 100.3823 100.7215 100.7678 101.0609 101.1541 101.5415 101.8343 101.8822 102.2234 102.2721 102.6143 102.6639 103.007 103.0576 103.351 103.4536 103.7472 103.8517 104.1456 104.1986 104.5462 104.8407 105.2437 105.3543 105.649 105.7051 106.0565 106.1135 106.4659 106.5239 106.8773 106.9362 107.2312 107.3503 107.6452 107.7661 108.0608 108.1219 108.4779 108.8963 108.9589 109.3159
143.4811 143.5994 143.8986 144.0254 144.2058 144.5135 144.7095 145.0959 145.5045 145.869 145.9687 146.3021 146.2976 146.5137 146.3745 146.4304 146.2309 146.2935 145.9888 146.0078 145.4441 145.2749 144.5113 144.1985 143.0508 140.0157 138.8559 135.0641 133.4449 128.537 125.8107 121.9428 115.268 112.2722 105.8528 102.3995 94.8582 91.06245 87.243 79.69091 75.92233 68.49186 58.07596 55.41334 53.0088 50.17396 49.52752 49.72508 50.20225 50.6728 51.74374 51.96818 52.21734 52.17208 51.89756 51.58766 51.28001 50.26125 50.16633 52.55364 54.21431 57.22307 58.59572 60.0764 60.75252 61.70327 62.4132 63.07284 63.93502 64.13319 65.08788 64.79836 64.8229 63.00394 63.33142 65.78294 68.45026 69.37638 69.82265 69.80959 69.93284 70.6386 70.57374 70.64027 70.47537 70.59415 70.64774 70.79186 72.49128 72.55485 72.79265 72.95706 73.3872 74.56848 74.99849 75.72292 76.10831 76.75774 77.08858 77.69014 77.97292 78.25774 78.80222 79.07724 79.60858 79.88757 80.40929 80.6993 80.95682 81.51431 82.32941 82.57222 82.90155 83.37259 83.71268 84.16136 84.50948 84.9338 85.28752 85.48959 86.0433 86.40697 86.77409 87.13776 87.31055 87.84048 88.00035 88.66254 89.16144 89.29749 89.65192 89.90598 90.2555 90.48944 90.83377 90.94295 91.38826 91.48894 91.92082 92.01385 92.43327 92.51945 92.84566 93.25114 93.7237 93.79608 94.11286 94.24973 94.56237 94.69125 95.00008 95.12218 95.42758 95.48601 95.84625 95.9022 96.25739 96.31125 96.60983 96.71455 97.01104 97.40784 97.50797 97.80116 98.09469 98.19208 98.48454 98.58138 98.87295 98.96957 99.26044 99.30872 99.64783 99.69643 100.0357 100.0847 100.3751 100.4737 100.864 101.1544 101.256 101.5465 101.5979 101.9405 101.9927 102.3365 102.628 102.681 103.0264 103.0805 103.4271 103.4821 103.8301 103.8862 104.179 104.5855 104.701 104.9944 105.0529 105.4054 105.4649 105.8185 105.8789 106.2335 106.2948 106.5887 106.7127 107.0065 107.363 107.4259 107.7199 107.8469 108.2691 108.5626 108.6926
143.3111 143.629 143.7396 143.9545 144.2229 144.4604 144.8129 145.0696 145.7221 145.9177 146.288 146.3994 146.6755 146.6757 146.7673 146.7382 146.8255 146.7372 146.8271 146.4743 146.4366 145.8592 145.7578 144.9816 144.4632 140.7435 138.3173 136.5908 132.3144 129.3924 123.7674 119.7608 116.6248 109.7139 106.5298 99.00924 95.22571 87.27685 83.46552 79.66538 72.17172 68.42446 57.79299 54.87333 51.14366 50.04522 49.52129 49.94093 50.94901 51.56038 51.84718 52.17139 52.16795 51.91986 51.62499 51.40809 50.30924 50.25265 51.42482 55.22449 56.57063 58.1602 60.27665 60.9552 61.45966 62.14015 62.66089 63.71046 63.87197 65.11193 65.53093 66.75941 65.80898 64.34569 64.76263 64.86176 68.49377 69.66035 70.65115 70.6247 70.00801 70.03699 70.28204 70.41219 70.49194 70.51815 70.80048 71.87095 72.59878 73.53179 73.47356 73.66982 73.97558 74.98677 75.33925 75.70999 76.4154 76.74831 77.3796 77.67934 78.25098 78.52814 78.79893 79.32993 79.59726 80.11018 80.38342 80.63472 81.16608 81.41051 82.18365 82.72408 82.95187 83.27092 83.71159 84.03987 84.58849 84.79413 85.13783 85.5302 85.8778 86.24547 86.5948 86.93781 87.28732 87.44898 87.95445 88.59628 88.7352 89.08114 89.34154 89.68365 89.9243 90.26225 90.48482 90.81836 90.92255 91.35315 91.68309 91.86841 92.19365 92.28062 92.68641 92.76733 93.23843 93.62479 93.69569 94.00605 94.14076 94.44748 94.575 94.87854 94.99994 95.30051 95.35884 95.71466 95.77077 96.12228 96.17664 96.47151 96.57759 97.2151 97.26607 97.60836 97.65866 97.94964 98.04939 98.33955 98.43895 98.72844 98.77795 99.11678 99.16652 99.50546 99.55556 99.89474 99.94531 100.2343 100.6251 100.7283 101.0176 101.0698 101.412 101.7021 101.8083 102.0987 102.2067 102.4974 102.5522 102.8985 102.9543 103.3019 103.3586 103.6504 103.7653 104.1743 104.4668 104.5857 104.8784 104.9386 105.2921 105.3532 105.7079 105.7699 106.0632 106.419 106.4819 106.8385 106.9022 107.2597 107.3242 107.6177 108.0409 108.1724 108.4653
143.2829 143.3756 143.7261 143.9775 144.1107 144.5397 144.7173 145.207 145.8878 146.0766 146.2933 146.6068 146.7341 146.963 146.9865 147.0884 147.1676 147.3018 147.2344 147.2681 146.8592 146.8618 146.3662 146.3348 145.336 141.6682 139.1379 135.2176 132.8346 128.1686 124.6089 118.3072 114.3293 111.2268 103.9037 100.3713 91.9444 88.08688 83.7005 76.23543 72.25594 64.70109 54.43884 52.41335 50.91788 49.62621 49.78265 50.84242 51.27198 51.78008 51.91039 51.94516 51.85004 51.43046 50.80862 50.29433 50.11679 51.26552 51.64687 55.86281 57.57023 59.64402 60.64677 61.686 62.19484 63.1101 63.84391 64.26583 65.45999 65.54652 66.77401 67.29267 66.29661 66.08127 65.65386 66.92119 70.00134 70.72914 71.02363 70.83064 70.49167 70.39018 70.60169 70.61314 70.91922 70.8782 71.91158 72.04543 73.24478 73.62024 73.93427 74.19388 74.20758 75.07791 75.8185 76.10596 76.45963 77.09056 77.40808 77.98506 78.27174 78.53516 79.07277 79.32865 79.83783 80.09562 80.58496 80.85061 81.0892 81.59993 82.34496 82.56734 82.86598 83.39294 83.60617 84.13218 84.33505 84.85749 85.04939 85.38034 85.74667 86.0811 86.42459 86.76073 86.9234 87.41817 87.56978 88.19392 88.665 88.79597 89.12994 89.37617 89.70703 89.93547 90.26285 90.6965 90.79855 91.1235 91.31529 91.63616 91.81468 92.13155 92.21567 92.61104 93.07606 93.14988 93.52814 93.59772 93.90199 94.03476 94.33605 94.46243 94.76094 94.82162 95.17778 95.23611 95.58777 95.88202 95.99229 96.28476 96.33862 96.73584 97.07811 97.13 97.41931 97.52192 97.81048 97.9126 98.20053 98.30248 98.58992 98.64083 98.97928 99.03049 99.36916 99.42072 99.70818 99.81194 100.4398 100.4923 100.8335 100.8869 101.1757 101.2835 101.5726 101.6821 101.9715 102.0269 102.3728 102.4293 102.7765 102.8339 103.1824 103.2408 103.5319 103.9416 104.0619 104.3537 104.4146 104.768 105.0604 105.1843 105.4769 105.6027 105.8955 105.959 106.3159 106.3802 106.7379 106.8031 107.1617 107.2277 107.6536 107.9462 108.0808
143.1256 143.2928 143.5684 143.791 144.1043 144.2547 144.7665 144.9538 145.6821 145.9921 146.3236 146.564 146.8279 146.9826 147.219 147.3123 147.4619 147.6315 147.739 147.5872 147.6007 147.2919 146.9667 146.9743 145.64 140.6225 138.2797 135.5625 131.072 128.4905 122.4865 118.9658 115.7949 108.9361 105.7098 97.72896 93.9733 85.20187 81.40956 76.77866 69.17942 64.91082 54.37385 52.2663 50.00116 49.6799 50.34957 51.00003 51.99736 52.02195 51.8576 51.64914 51.25282 50.4707 50.13821 50.72678 51.30605 51.52943 53.6024 58.62281 59.17786 60.12421 61.66754 62.45186 63.44147 63.6148 65.04539 65.32221 66.01984 66.78839 67.39899 67.29603 66.82378 66.33144 67.17146 67.58347 70.26937 71.04353 71.06695 71.00608 70.34341 70.34235 70.94779 71.64298 71.57753 73.08971 72.61768 72.92505 73.48598 74.11996 74.43661 74.45518 75.0122 75.75221 75.9376 76.28893 76.86914 77.19641 77.75587 78.05098 78.57518 78.84444 79.08551 79.59428 79.83598 80.31847 80.56633 80.79997 81.28647 81.51157 82.2789 82.70932 82.99849 83.2072 83.71017 83.9095 84.41108 84.60056 85.09848 85.27779 85.59683 85.9391 86.26138 86.58283 86.90681 87.05922 87.53221 88.13735 88.27019 88.72221 88.84596 89.16897 89.61017 89.72287 90.153 90.25786 90.57724 90.77478 91.09076 91.27509 91.58759 91.75993 92.06902 92.15054 92.61287 92.99072 93.06292 93.36429 93.50204 93.80067 93.9319 94.22803 94.35335 94.64716 94.94138 95.05923 95.35144 95.46556 95.7561 95.81178 96.15636 96.5528 96.60626 96.94659 96.99937 97.2861 97.39085 97.67711 97.78152 98.06738 98.11945 98.45731 98.50952 98.84765 98.90018 99.23868 99.52496 99.5777 99.97078 100.3113 100.3654 100.6527 100.7621 101.0498 101.1608 101.4489 101.5617 101.8503 101.9074 102.2541 102.3122 102.6603 102.7193 103.0688 103.1287 103.5407 103.8315 104.1843 104.2462 104.5378 104.663 104.9548 105.0819 105.374 105.5029 105.7951 105.8601 106.2179 106.2838 106.6425 106.7093 107.0017 107.4285 107.5646 107.8566
142.7943 143.0881 143.25 143.5833 143.7004 144.2118 144.3729 144.9467 145.683 145.843 146.1827 146.4594 146.7346 146.9828 147.1983 147.3458 147.6873 147.8481 147.9714 147.8365 147.9032 147.7247 147.8255 147.3744 146.9403 141.7476 138.6925 133.3466 130.9301 125.3892 122.5323 116.0826 112.8998 109.7364 102.9541 99.44086 91.26541 87.44534 78.63 74.67482 69.81397 61.3561 52.23933 50.82537 49.985 49.6914 50.22624 51.34825 51.87618 51.40883 51.3478 50.89659 50.45058 50.11665 50.47873 51.00994 51.3856 52.57062 54.02392 58.97461 60.82928 61.54366 62.11391 63.62973 63.86062 65.03361 65.37013 66.18523 67.34328 67.6223 68.29337 68.07902 66.73634 66.91045 67.36648 69.62132 71.44019 71.16621 71.06837 70.85166 70.52151 70.92488 71.97343 73.6614 73.55571 74.22956 73.88314 74.2157 74.37313 74.74673 74.72086 75.30762 75.28816 75.95725 76.60476 76.76326 77.08484 77.59357 77.89055 78.38683 78.65769 79.1348 79.38515 79.60793 80.08466 80.31381 80.78133 81.00566 81.25374 81.68966 82.36824 82.63814 83.04144 83.32159 83.51688 83.99691 84.18326 84.66174 84.83884 85.14215 85.4817 85.78951 86.10982 86.42081 86.72212 87.03488 87.17801 87.9487 88.20915 88.52592 88.64905 89.08444 89.19937 89.62476 89.73199 90.14761 90.24777 90.5582 90.74765 91.05531 91.23279 91.53761 91.62173 92.0062 92.46219 92.53685 92.90681 92.97752 93.27318 93.63631 93.70223 94.06009 94.12318 94.41512 94.53703 94.82702 94.94487 95.23323 95.34784 95.63489 95.69094 96.08773 96.4276 96.48181 96.76671 96.87398 97.15837 97.26521 97.54932 97.65593 97.93978 98.2243 98.33034 98.61493 98.72166 99.00633 99.11391 99.3988 99.79289 99.84772 100.1887 100.2444 100.5306 100.6431 100.9297 101.0439 101.331 101.447 101.7348 101.7935 102.141 102.2007 102.5496 102.6103 102.8995 103.3119 103.6643 103.7269 104.0805 104.144 104.4349 104.5633 104.8546 104.9848 105.2763 105.3421 105.6999 105.7664 106.1251 106.1926 106.5523 106.6205 107.0499 107.3415 107.4806
142.5474 142.6469 142.9922 143.1628 143.5641 143.6904 144.2718 144.4264 145.1839 145.6085 145.8779 146.2574 146.5055 146.839 147.2718 147.4433 147.6886 147.9976 148.0686 148.1378 148.0713 148.1479 148.0798 147.936 146.4479 139.4406 136.5036 133.4222 127.9471 125.108 118.9321 115.8556 109.2597 106.3596 103.0114 96.13924 92.09022 84.44676 79.65572 75.61758 66.43836 62.30741 52.52621 49.97298 49.51283 49.56301 50.24458 51.0278 50.84675 50.87552 50.44336 50.29012 50.11926 49.99631 50.49625 50.93938 51.4553 52.66891 56.34219 60.0221 60.85604 61.76558 63.38611 63.88652 65.44763 65.57527 67.11516 67.26165 67.89635 67.97814 68.30775 67.92257 67.36194 67.228 68.91277 69.78465 71.42516 71.04443 70.8059 70.58254 70.56213 71.17034 73.97669 74.61935 76.04218 75.50871 75.64066 75.23596 75.47308 75.48973 75.75719 75.64481 76.18147 76.73311 76.80177 77.3932 77.52723 77.81525 78.26138 78.52862 78.97205 79.21939 79.41799 79.86517 80.09573 80.53882 80.75816 81.20155 81.41177 81.65143 82.31091 82.70388 82.96558 83.15631 83.61433 83.79695 84.25531 84.42958 84.88653 85.05217 85.34528 85.66302 85.96054 86.26076 86.56132 86.86717 87.14665 87.71614 88.02348 88.26949 88.57635 88.69292 89.11261 89.22179 89.63264 89.73492 90.03931 90.23322 90.53546 90.71748 91.01748 91.18877 91.48636 91.56779 92.02005 92.38873 92.68271 92.75405 93.11621 93.18422 93.54128 93.60641 93.95892 94.02155 94.30909 94.43056 94.71658 94.83456 95.11933 95.23442 95.51817 95.91396 95.9695 96.30732 96.36227 96.64468 96.75385 97.036 97.37277 97.42684 97.76346 97.8176 98.10034 98.20891 98.49184 98.60117 98.88431 98.93934 99.33397 99.67408 99.73045 100.0718 100.1289 100.4142 100.5296 100.8153 100.9325 101.2188 101.2782 101.6249 101.9125 102.0335 102.3216 102.4444 102.733 103.1469 103.2101 103.5634 103.6275 103.9175 104.0471 104.3374 104.4689 104.7596 104.893 105.1838 105.2511 105.6097 105.6778 106.0375 106.1064 106.3977 106.828 107.1892 107.2595
141.9943 142.3449 142.4357 142.8443 143.0225 143.4928 143.6148 144.2391 144.99 145.107 145.5734 146.1195 146.2413 146.7779 146.9367 147.4939 147.6715 147.9461 148.1017 148.1573 148.078 148.1049 147.9646 147.3577 146.3792 139.9565 133.9399 131.1863 128.1008 122.1163 118.8471 112.1049 108.8839 105.9541 99.14082 96.03904 88.81538 84.95701 77.02395 72.21216 67.88041 58.97454 51.10672 49.99123 49.42998 49.45582 49.97258 50.44395 50.52269 50.22382 50.19001 50.06044 49.83492 50.06347 51.09159 50.99181 51.61147 54.87858 56.87617 60.14993 62.02832 62.92956 63.46896 64.94333 65.65462 67.19964 67.68008 69.17577 68.95324 68.97628 68.46225 68.58473 67.70932 68.20255 69.03664 69.92065 71.25068 71.01272 70.54995 70.71665 70.8036 73.01892 74.2651 76.34147 76.5271 76.69557 76.38843 76.47905 76.22984 76.41339 76.40054 76.6237 76.509 76.98539 77.51181 77.57407 77.84126 78.21619 78.36046 78.86691 79.03477 79.50764 79.6911 79.91654 80.33202 80.54574 80.96288 81.16721 81.38724 81.78416 82.39807 82.64139 83.00883 83.26268 83.44101 83.87865 84.04945 84.48754 84.65054 84.92868 85.37189 85.52616 85.96582 86.11186 86.54674 86.68469 86.98064 87.54117 87.7888 88.08664 88.20438 88.61716 88.72781 89.13307 89.23705 89.63467 89.73242 90.02876 90.21472 90.5094 90.68472 90.97763 91.14314 91.43412 91.8799 92.17024 92.31607 92.60448 92.67448 93.03031 93.09737 93.44878 93.51323 93.8608 93.92308 94.20653 94.32774 94.61002 94.72815 95.00954 95.06744 95.4628 95.79977 95.85597 96.19189 96.4725 96.52777 96.86357 96.9187 97.25443 97.30956 97.59039 97.70076 97.98182 98.09286 98.37424 98.48613 98.7679 99.16342 99.22046 99.5609 99.61867 99.90226 100.019 100.3032 100.4216 100.7064 101.0518 101.1122 101.3983 101.5205 101.8073 101.9313 102.2186 102.2814 102.6962 103.0489 103.1135 103.4677 103.5333 103.8228 103.9554 104.2452 104.3797 104.6699 104.8061 105.0964 105.1651 105.5247 105.8154 105.9548 106.2457 106.6775 106.7485 107.1106
141.6541 141.6644 142.0712 142.1573 142.6346 142.7154 143.3297 143.856 144.6057 144.802 145.3175 145.421 146.0448 146.1865 146.8461 147.0268 147.4734 147.7405 147.9849 147.8958 147.9332 147.36 147.2404 146.4717 144.2899 137.0067 134.1747 131.4112 125.8181 122.4548 115.6611 112.2354 105.282 101.8379 98.67242 91.7662 88.60258 81.34271 77.37203 73.26942 64.17673 60.05224 51.38433 49.33941 49.15237 49.34982 50.00087 50.27753 50.21106 50.18824 49.87805 49.82829 49.79298 50.90302 51.29641 52.60839 53.68292 55.82708 58.44451 60.90355 61.87182 63.37297 64.08278 64.95177 66.61644 67.26295 68.86004 69.60738 70.2521 69.49169 69.24693 68.9201 69.1048 69.43947 69.64458 69.99284 70.91641 70.9094 71.14806 71.24458 73.44559 73.64793 75.81842 76.36135 77.06943 77.10681 77.2231 77.04597 77.15019 77.01479 77.17638 76.98851 77.38503 77.74052 77.7337 78.01747 78.26047 78.35149 78.8292 78.95744 79.41103 79.56392 79.78181 80.16448 80.37137 80.75948 80.95724 81.35099 81.54099 81.75352 82.34846 82.70514 82.94138 83.1149 83.53125 83.69798 84.11655 84.37975 84.69547 84.96552 85.11771 85.54208 85.68674 86.10812 86.24533 86.66268 86.79251 87.32761 87.61597 87.85007 88.13919 88.25084 88.64941 88.75468 89.14668 89.24594 89.63136 89.725 90.01395 90.39354 90.48045 90.85366 90.93585 91.22374 91.66727 91.81683 92.10155 92.24435 92.52762 92.59641 92.94637 93.01251 93.35875 93.42262 93.7033 93.82765 94.1073 94.2283 94.5071 94.62549 94.90372 95.29786 95.57654 95.69012 95.96844 96.02481 96.35958 96.41571 96.75028 96.80634 97.14114 97.19734 97.47643 97.58911 97.86858 97.98204 98.2619 98.31898 98.71464 99.05392 99.1124 99.45305 99.73567 99.79478 100.1376 100.1976 100.542 100.6029 100.949 101.0109 101.2962 101.4213 101.7074 101.8344 102.1211 102.5373 102.6025 102.956 103.0222 103.3773 103.4444 103.7332 103.8689 104.1581 104.5162 104.5851 104.8749 105.0139 105.3039 105.4446 105.7348 105.8771 106.239 106.6013 106.6737
140.8636 141.2612 141.2511 141.722 142.2713 142.3331 142.8816 143.0339 143.7558 144.3353 144.4091 145.0848 145.2006 145.9444 146.1061 146.8575 147.011 147.4742 147.524 147.6851 147.143 146.9857 146.2892 144.6116 142.8997 136.7232 131.2736 128.7888 125.9952 119.6738 116.4057 109.2328 105.7833 98.42372 94.97313 91.52932 84.7285 81.29211 73.81489 69.43944 65.19801 56.81105 50.21942 49.52198 49.38861 49.73534 50.00612 50.29956 50.23855 49.91121 49.74508 49.80231 50.51855 51.05752 52.40203 53.18469 56.84222 57.90371 58.798 61.2722 62.59451 63.45926 64.14177 65.98917 66.75893 67.78571 68.74199 70.30704 70.57803 70.09763 69.69952 69.41003 69.96819 69.90343 70.39419 70.32826 71.02447 71.59797 72.67575 73.74606 74.29356 75.99263 76.16099 76.96004 77.17599 77.42692 77.58788 77.70008 77.62007 77.73471 77.67923 77.51645 77.69252 77.98868 78.17793 78.39127 78.42808 78.86268 78.94722 79.37125 79.48964 79.89715 80.04031 80.23823 80.59363 80.78352 81.14813 81.33099 81.70396 81.88049 82.43137 82.64995 82.98277 83.21257 83.45106 83.77312 84.02079 84.32982 84.58539 84.88112 85.14323 85.28592 85.69292 85.82878 86.23337 86.36247 86.63847 87.16467 87.39912 87.67926 87.90114 88.18231 88.28839 88.67397 88.77428 89.15419 89.43837 89.53176 89.907 89.99544 90.36501 90.44881 90.81285 90.89251 91.32732 91.60799 91.75404 92.03358 92.10401 92.45209 92.51981 92.86435 92.92978 93.27126 93.33466 93.61142 93.73521 94.01131 94.34819 94.40784 94.68442 95.07811 95.19405 95.47005 95.58492 95.8609 95.918 96.25134 96.30832 96.6418 96.69888 97.03285 97.09016 97.36759 97.48257 97.76047 97.87634 98.15485 98.55123 98.83135 98.94971 99.23059 99.35048 99.63203 99.6926 100.0359 100.0973 100.4423 100.5047 100.7886 100.9148 101.1994 101.3274 101.6127 101.7427 102.0944 102.4472 102.5139 102.8683 102.936 103.2238 103.5801 103.6487 104.0065 104.0759 104.4348 104.5052 104.7945 104.9364 105.2259 105.3694 105.659 106.0938 106.1669 106.53
140.4286 140.8016 140.777 141.2643 141.2771 141.8299 141.8987 142.5004 143.2032 143.2764 143.9309 144.004 144.8012 144.9334 145.7815 145.9338 146.7081 146.7884 147.2003 146.8971 146.8357 145.4424 144.7553 143.9334 139.9901 132.8922 130.8729 125.5973 123.0268 120.0089 113.6057 110.4446 102.9583 99.44546 95.31699 88.44772 84.79552 77.94324 74.05237 66.03945 61.45601 57.56015 50.48634 49.47243 49.51453 49.85783 50.28046 50.24927 49.94934 49.74835 49.71103 50.1638 50.70483 51.87302 52.62651 55.93076 57.33815 58.50401 59.60572 62.45563 63.11607 64.67574 65.48621 66.04609 67.25655 67.81256 69.51167 70.23083 70.64231 70.54317 70.05121 70.29905 70.16158 70.70892 71.00264 70.85566 71.16932 73.22761 74.30982 74.34993 75.44895 76.07945 76.72984 77.03519 77.56653 77.73021 77.91104 78.03587 77.91426 78.13985 77.98587 78.25916 78.1447 78.41352 78.59329 78.77435 78.96303 79.0043 79.38892 79.47095 79.84923 79.96217 80.32992 80.46707 80.64736 80.98029 81.15482 81.49945 81.66861 81.85573 82.38799 82.76191 82.92212 83.30206 83.45683 83.68893 83.99017 84.23109 84.52051 84.76896 84.9091 85.30107 85.43503 85.82605 85.95386 86.34306 86.46474 86.96683 87.23766 87.45964 87.73225 88.00859 88.2169 88.49405 88.6915 88.96895 89.1561 89.4335 89.52315 89.88829 89.9735 90.33378 90.41488 90.69204 91.12421 91.27321 91.54873 91.69164 91.96635 92.03548 92.37798 92.44479 92.78439 93.05895 93.18622 93.46017 93.52237 93.85777 93.91861 94.2524 94.31223 94.70396 94.97748 95.09435 95.3679 95.48405 95.7578 95.81567 96.14778 96.20561 96.53816 96.59619 96.87148 96.98785 97.26373 97.38095 97.65744 97.99371 98.33116 98.45061 98.72958 98.85062 99.13042 99.19151 99.53365 99.59557 99.93935 100.0023 100.3479 100.4117 100.6947 100.8238 101.1077 101.2387 101.5232 101.9415 102.0087 102.3623 102.6488 102.7857 103.0728 103.142 103.4992 103.5693 103.9278 103.9988 104.2872 104.4304 104.719 104.8637 105.1526 105.2989 105.6617 106.0249 106.0994
139.8934 139.8182 140.2301 140.189 140.7167 140.7011 141.3082 141.2993 141.94 142.6278 142.675 143.4416 143.5291 144.4383 144.5595 145.4835 145.6073 146.2942 146.7385 146.5529 145.9507 145.1165 142.843 140.9731 139.2938 132.1741 127.0385 125.0594 122.2305 116.835 113.9487 107.8159 104.456 96.64112 93.04879 88.92143 82.04433 78.23161 70.88876 66.45537 61.86782 54.59696 49.87863 49.57774 50.04322 50.28552 50.30698 50.01442 49.84967 49.78114 50.19331 50.45036 51.78925 51.94443 54.01948 55.75074 58.10889 59.19804 59.95292 62.78595 64.05074 64.98886 65.59775 66.39221 66.97682 68.64161 69.50876 70.62897 70.78 70.64298 70.48348 70.5488 70.62994 70.77498 71.12181 70.9936 72.4912 73.98652 75.36671 75.24279 75.26111 76.05843 76.60364 77.24963 77.57275 77.99712 78.17799 78.21021 78.46545 78.38179 78.61489 78.50897 78.63831 78.83983 78.95634 79.11691 79.29131 79.45882 79.50592 79.84822 79.93059 80.27005 80.38075 80.54938 80.84798 81.01273 81.32724 81.49231 81.81556 81.99632 82.5052 82.65946 83.01745 83.16707 83.38364 83.67595 83.90225 84.1843 84.41898 84.69032 84.93222 85.06385 85.44069 85.56673 85.94308 86.06349 86.32118 86.81454 87.19093 87.29957 87.67271 87.776 88.04528 88.24377 88.51405 88.70271 88.97353 89.15299 89.42413 89.51038 89.86629 89.94853 90.3004 90.37895 90.80219 91.07342 91.21892 91.48962 91.62965 91.89996 92.17169 92.30544 92.57667 92.70641 92.97721 93.04063 93.37416 93.43617 93.76819 93.82909 94.16013 94.49098 94.60978 94.88074 94.99866 95.26992 95.32858 95.65909 95.71776 96.04877 96.1075 96.43921 96.71304 96.7718 97.10542 97.1647 97.49953 97.55931 97.956 98.233 98.35501 98.6329 98.75662 99.03539 99.09783 99.44031 99.50363 99.84804 99.91233 100.1937 100.3237 100.606 100.7379 101.021 101.3716 101.7234 101.8592 102.1445 102.2823 102.5683 102.708 102.9946 103.0651 103.4232 103.4947 103.8541 103.9265 104.2143 104.3602 104.6483 104.7957 105.084 105.5217 105.5967 105.9607
138.8614 139.1904 139.0932 139.5396 139.4707 140.016 139.9585 140.6151 141.2152 141.1336 141.9197 141.9404 142.8599 142.9337 143.9233 144.8008 145.0296 145.7755 145.778 145.865 145.3767 143.7536 142.2734 140.5899 135.6682 128.1428 126.2972 120.8052 118.6075 115.6951 110.8367 107.9684 101.3677 97.7356 93.64573 86.40658 82.45823 75.00751 71.23994 62.71975 58.68926 54.88127 49.99049 49.76001 50.05748 50.29485 50.10091 49.96277 50.05897 50.65081 51.84243 52.8552 52.35979 53.75848 54.42507 56.87229 57.59473 59.39229 60.70686 62.88663 63.92454 65.66196 66.08897 66.41102 67.64347 68.52133 70.15573 70.31446 70.70798 70.45015 70.57002 71.0582 70.81521 71.45679 71.29019 71.44073 73.61474 75.07491 75.49875 75.47964 75.58614 75.95589 76.82658 77.17997 77.82451 78.07941 78.2543 78.60794 78.6272 78.87901 78.81866 79.04758 78.97474 79.17 79.30386 79.42602 79.56978 79.58701 79.88859 79.94232 80.2489 80.33359 80.59408 80.75079 80.87517 81.18698 81.33163 81.63756 81.79961 81.9508 82.42397 82.7594 82.90324 83.24684 83.38665 83.5983 83.87192 84.09294 84.35724 84.58624 84.84105 85.07701 85.20075 85.56374 85.81096 86.04532 86.29694 86.77628 86.8844 87.24841 87.35155 87.71291 87.81129 88.07408 88.2635 88.52751 88.70818 88.97294 89.05994 89.41085 89.49402 89.84146 89.92103 90.26509 90.60802 90.75571 91.0222 91.36095 91.4308 91.69865 91.83466 92.10232 92.23434 92.50182 92.63048 92.89778 92.96088 93.29089 93.35275 93.68178 93.74275 94.13142 94.39968 94.51926 94.78792 94.90695 95.17609 95.23546 95.56473 95.83559 95.95418 96.22563 96.28508 96.617 96.67683 97.01007 97.07042 97.40501 97.74091 97.86388 98.13976 98.26443 98.54131 98.66753 98.94529 99.00903 99.352 99.41672 99.76167 99.82729 100.1079 100.4555 100.5222 100.8717 100.9394 101.3594 101.6433 101.782 102.0666 102.2073 102.4926 102.5637 102.9212 102.9932 103.352 103.4249 103.7851 103.8589 104.1461 104.2947 104.5822 104.7324 105.3083 105.4599 105.7481
138.1628 138.0105 138.3617 138.2354 138.6987 138.5879 139.2298 139.023 139.5212 140.2988 141.0951 141.0978 142.0194 142.103 143.0779 143.2477 144.2444 144.3432 145.1111 144.9503 144.3939 143.4413 140.271 137.9233 135.3531 127.5118 122.3163 120.1186 117.1793 112.1324 109.4316 104.3245 100.9817 94.14271 90.36681 86.71838 79.22413 75.5226 67.49255 63.35569 55.53831 52.88889 49.71581 49.75652 50.17352 50.13729 49.98418 50.26949 50.89461 52.23116 53.11552 53.63247 53.52582 54.29266 57.23995 57.73037 58.3792 59.22617 60.51173 62.74413 64.42054 65.48557 66.52296 67.0971 67.78362 69.12873 69.64602 69.74651 69.91403 70.43376 70.85108 71.23032 71.15197 71.38224 71.8885 72.56975 74.84542 75.05243 75.58025 75.61287 75.71808 76.31932 76.72046 77.49298 77.83121 78.36223 78.59331 78.70753 79.02855 79.03144 79.26775 79.22123 79.32967 79.49952 79.58492 79.70615 79.83198 79.96104 79.99042 80.18002 80.3219 80.54356 80.68677 80.93454 81.07751 81.20184 81.48824 81.63174 81.91446 82.07457 82.52722 82.66473 82.98714 83.12149 83.45199 83.58282 83.79016 84.04654 84.26265 84.51082 84.73467 84.96471 85.2047 85.44081 85.67152 85.91271 86.13412 86.48682 86.84103 86.9436 87.29626 87.39439 87.64937 87.83882 88.09564 88.27689 88.53511 88.70853 88.96779 89.05157 89.39407 89.4744 89.81403 90.07669 90.49098 90.56441 90.89987 90.97074 91.30391 91.37258 91.63639 91.77039 92.03427 92.16493 92.42892 92.49295 92.82069 92.88348 93.21031 93.27216 93.59843 93.92496 94.04611 94.312 94.63902 94.69901 95.02643 95.08636 95.3547 95.47455 95.74362 95.86391 96.13377 96.19418 96.52559 96.58646 96.91934 96.98077 97.3775 97.65121 97.77669 98.05153 98.17862 98.45446 98.51862 98.86008 99.1379 99.26868 99.54755 99.68016 99.95996 100.027 100.3753 100.4434 100.7936 101.1452 101.2847 101.568 101.7095 101.9935 102.137 102.4218 102.4943 102.8525 102.9258 103.2856 103.3598 103.6462 103.7958 104.0825 104.445 104.5208 104.9609 105.2485 105.4026
136.957 137.2061 137.0208 137.3839 137.2163 137.6749 137.5107 138.1952 138.6285 139.3159 139.2291 140.1553 140.0937 141.1188 141.1348 142.2578 142.4314 143.5312 143.5604 144.0521 143.5952 141.9917 140.2479 135.1976 132.2476 124.0433 121.7772 115.985 113.5861 111.3751 105.6605 103.5283 96.82774 93.90014 86.71613 83.17918 79.48131 71.71556 67.62809 59.44809 55.92323 53.1129 49.87139 50.10313 50.16594 49.95018 50.24854 51.07137 52.30804 52.62458 53.04123 53.63762 53.62551 55.87926 56.93418 58.14112 58.2911 59.68211 60.33315 62.6808 63.93399 64.91605 66.28144 66.87521 68.15171 68.09673 69.13609 69.26455 70.04285 70.34639 70.66375 71.47012 71.39759 71.5888 72.03881 72.51627 74.62643 75.54903 75.56707 75.97451 76.0683 76.44406 77.16866 77.57112 78.20241 78.50157 78.89432 79.08967 79.14594 79.42177 79.40944 79.62007 79.58336 79.74835 79.85049 79.94388 79.9461 80.18215 80.21474 80.33928 80.52365 80.65204 80.86575 80.99628 81.10115 81.36583 81.49126 81.75552 81.89887 82.16106 82.45044 82.75137 82.87972 83.19052 83.31622 83.51004 83.75757 83.96092 84.29333 84.41328 84.74966 84.86574 85.09066 85.31687 85.54758 85.76547 86.00118 86.45067 86.5523 86.8956 86.99315 87.33536 87.42894 87.67831 87.85939 88.11073 88.28454 88.53745 88.62157 88.95856 89.21527 89.37411 89.63152 89.78441 90.11662 90.44833 90.52005 90.84982 90.91934 91.24729 91.3149 91.57497 91.70732 91.96769 92.09711 92.35783 92.42143 92.74588 92.80849 93.13248 93.19432 93.78148 93.84238 94.1673 94.22795 94.55331 94.61385 94.87952 95.00056 95.26708 95.38846 95.65585 95.77795 96.0463 96.10767 96.43867 96.50058 96.83322 97.16738 97.29367 97.5663 97.69417 97.96795 98.30734 98.37237 98.64826 98.77971 99.05672 99.19015 99.46818 99.5356 99.88254 99.95097 100.3 100.3694 100.7907 101.0725 101.2148 101.4975 101.6418 101.9253 101.9981 102.3557 102.4295 102.7885 103.0739 103.2236 103.5095 103.585 103.9472 104.0235 104.3868 104.8282 104.9061 105.1931
136.0911 135.8484 136.0984 135.8713 136.2272 136.8532 136.4426 137.1442 137.5125 137.3313 138.0944 137.9746 139.0034 138.8322 139.9852 139.9776 141.2828 141.3878 142.5222 142.3736 142.3469 141.3732 137.943 135.2695 132.2683 123.7579 118.4449 115.4378 109.9006 106.8156 104.6387 98.20245 95.94657 89.2457 86.39578 82.87874 75.65721 71.73524 63.46943 59.47516 53.27813 51.61231 50.18504 50.16763 49.92226 49.95684 50.53222 52.76789 53.11839 53.21834 52.70848 53.38005 54.19462 54.94694 56.3625 56.79248 57.8765 58.44868 59.56575 61.67147 62.42424 63.89475 65.1308 66.44472 66.68554 67.7636 68.21478 69.57131 70.15219 70.65041 71.03603 71.3569 71.39252 71.61163 72.83257 73.24377 75.72514 76.04425 76.84013 76.49312 76.86655 77.01629 77.42999 78.07417 78.43214 78.88593 79.12598 79.20433 79.53334 79.54457 79.76801 79.74652 79.8102 79.87381 80.06046 80.05273 80.25241 80.27 80.3772 80.52785 80.64082 80.82224 80.93935 81.14786 81.26768 81.37608 81.62025 81.74749 81.99249 82.13621 82.53843 82.66026 82.95117 83.12988 83.37163 83.5611 83.68028 83.99625 84.11243 84.43359 84.54646 84.76015 84.98103 85.20128 85.41483 85.64064 85.84682 86.17772 86.51106 86.6077 86.94094 87.03387 87.36652 87.45596 87.70018 88.03455 88.12006 88.45294 88.5352 88.786 88.94562 89.19754 89.35143 89.60428 90.00673 90.07912 90.40505 90.47523 90.79977 90.86807 91.12417 91.25799 91.5146 91.64549 91.90259 92.03108 92.28876 92.54794 92.6735 92.93318 93.05733 93.37927 93.7019 93.7632 94.0863 94.1474 94.47128 94.53241 94.79623 94.91866 95.18344 95.30646 95.57234 95.63415 95.96315 96.02545 96.35617 96.41913 96.81534 97.08582 97.42151 97.48598 97.82359 97.88892 98.16284 98.29498 98.57004 98.70404 98.98032 99.11632 99.39362 99.46234 99.80995 99.87968 100.2293 100.6516 100.7233 101.0046 101.1496 101.4318 101.5787 101.8616 102.1452 102.2941 102.5783 102.7291 103.0139 103.1663 103.4516 103.5285 103.8914 103.9691 104.4116 104.6978 104.8558
135.1454 134.8654 135.3463 134.8158 135.3915 134.8645 135.5234 135.2601 135.456 136.0535 135.8327 136.6384 136.4499 137.5742 137.3007 138.6301 138.5775 140.0518 140.0127 140.9799 140.5527 139.3573 137.7788 132.3233 129.3231 120.8835 118.0021 111.9544 108.8069 106.0662 99.50426 97.11658 90.63947 88.44106 82.06814 79.09845 75.57613 67.81403 63.7501 56.04224 53.33453 51.60432 50.1674 49.97668 49.83093 50.6356 51.5571 52.84053 53.95383 53.76241 53.48549 53.27983 54.43365 55.44119 56.33786 57.40561 57.85848 59.01361 59.67641 61.08697 61.79859 62.91819 64.22315 65.44595 66.40886 66.75529 68.41129 69.57824 70.43336 70.70562 70.75699 70.28833 69.05558 71.20866 71.84328 73.13095 74.89468 75.28773 76.57172 76.74485 77.04472 77.39066 78.04178 78.44724 78.92969 79.20929 79.47838 79.65048 79.66014 79.78131 79.883 79.95157 80.03342 80.1703 80.15907 80.32661 80.33513 80.51627 80.54807 80.64568 80.79819 80.90158 81.08202 81.18985 81.28299 81.50583 81.61815 81.84473 81.97417 82.20239 82.4995 82.7327 82.89819 83.12877 83.30556 83.53237 83.71918 83.83119 84.13693 84.24623 84.55711 84.66354 84.87332 85.08185 85.29776 85.49977 85.7211 86.14267 86.23793 86.56177 86.65375 86.97784 87.21515 87.3036 87.63055 87.71578 88.04199 88.12425 88.44939 88.52876 88.77499 88.92944 89.177 89.32652 89.6481 89.96986 90.04062 90.36119 90.4301 90.74985 90.81714 91.06979 91.20193 91.45535 91.7749 91.83917 92.09487 92.22171 92.47813 92.60349 92.86066 93.24301 93.30486 93.62557 93.68721 94.0087 94.0703 94.33131 94.45468 94.71675 94.84062 95.10384 95.22853 95.4929 95.55556 95.88417 96.15106 96.27795 96.6745 96.94386 97.00867 97.34442 97.41008 97.74791 97.81448 98.08757 98.22217 98.49641 98.633 98.90852 99.04702 99.32366 99.3937 99.74193 99.81298 100.2353 100.515 100.8682 100.9414 101.2965 101.3706 101.7275 101.8026 102.0856 102.2372 102.5208 102.6742 102.9585 103.0359 103.3983 103.4765 103.8402 104.284 104.3637 104.6494
133.7021 134.1169 133.4662 133.9781 133.3332 133.9362 133.2748 133.9607 134.064 133.7427 134.3625 134.0732 135.1315 134.6019 135.8447 135.458 136.9814 136.7283 138.2868 139.6279 138.535 138.5328 134.328 132.1557 129.354 121.4901 115.3828 112.3374 105.5205 102.173 98.91006 92.12747 89.65818 83.67278 81.50391 75.41452 72.07026 68.42385 60.19556 56.62202 51.72057 50.72784 50.00179 49.77228 50.13875 51.09329 52.14261 52.45028 53.44631 53.88513 53.72141 53.85345 54.3224 55.2775 57.05999 57.57697 58.51094 59.17507 60.52303 61.13602 61.89894 62.48349 64.09902 64.77533 65.98939 66.77953 67.83312 68.94961 69.82386 70.5918 70.89851 69.93355 65.82161 65.84212 70.79065 71.25024 72.97162 73.97041 75.12959 76.32088 77.57761 78.00199 78.50029 79.06142 79.14071 79.64137 79.64275 79.80486 79.91525 80.0167 80.07776 80.15215 80.20108 80.25624 80.39543 80.40001 80.55113 80.57536 80.74121 80.78644 80.87619 81.03185 81.12744 81.30838 81.40849 81.50771 81.72397 81.83138 82.06602 82.17471 82.53368 82.68649 82.90515 83.06976 83.28624 83.46138 83.56882 83.85909 83.96445 84.26089 84.36397 84.66549 84.76605 84.97217 85.16936 85.38136 85.57289 85.88382 86.19779 86.42375 86.60362 86.83327 87.00724 87.24007 87.32481 87.6438 87.72576 88.04443 88.12376 88.36406 88.51862 88.76064 88.91052 89.15407 89.54451 89.61564 89.93206 90.0014 90.31723 90.38496 90.63351 90.95023 91.01614 91.33253 91.39732 91.71353 91.7774 92.03035 92.15681 92.41065 92.536 92.91547 93.1713 93.23341 93.55238 93.61444 93.93456 93.9967 94.25598 94.38059 94.64108 94.76645 95.02818 95.35422 95.4175 95.68182 95.80939 96.07504 96.47105 96.53617 96.86996 96.93588 97.27181 97.33862 97.67682 97.7446 98.01682 98.15387 98.4274 98.56648 98.84123 98.91151 99.25826 99.32956 99.67846 100.1018 100.3808 100.4543 100.8083 100.8827 101.2386 101.314 101.5957 101.748 102.0305 102.1847 102.4678 102.6238 102.9076 102.9862 103.3494 103.4289 103.8736 104.1586 104.3202
131.034 130.9571 130.5096 130.964 130.0695 130.6178 129.69 130.3242 130.0883 129.6029 129.9788 130.9415 130.0222 131.151 130.6986 131.604 131.1796 132.4386 132.0234 133.7649 132.151 132.5754 128.29 127.2943 123.0847 119.8725 114.6646 111.6064 104.0063 100.3493 95.92022 88.5693 84.99985 79.5096 76.87382 71.97772 68.93061 65.4874 58.29699 54.75941 51.35605 50.30503 49.83578 49.85112 51.72746 53.31408 54.40128 53.97659 53.0079 53.75003 54.06014 54.8473 55.53722 56.26374 57.28563 57.7089 58.43023 59.46321 60.86647 61.66741 62.41172 62.65868 63.14209 63.77679 65.60027 66.0218 66.72707 68.28429 68.99294 70.64977 71.89572 71.16939 64.54066 62.17318 66.31796 69.77269 78.5115 77.32514 77.21525 78.2423 79.03352 79.63557 79.63635 80.27431 80.17458 80.43845 80.32788 80.4429 80.36642 80.40681 80.3995 80.43545 80.45813 80.50145 80.59732 80.61823 80.73101 80.76859 80.89822 80.95201 81.0104 81.16682 81.2421 81.41034 81.50182 81.59067 81.78591 81.8783 82.09079 82.1855 82.50888 82.65139 82.84554 82.99896 83.19266 83.35599 83.45273 83.72034 83.8158 84.09025 84.1842 84.46458 84.65735 84.75032 85.04103 85.13184 85.4261 85.8118 85.89801 86.11218 86.28135 86.49962 86.66426 86.88612 86.96673 87.27127 87.34962 87.65482 87.73106 88.03661 88.11079 88.34354 88.48909 88.72382 89.10237 89.34107 89.47932 89.71954 89.85486 90.09637 90.22926 90.47211 90.53767 90.84711 90.91179 91.22156 91.28548 91.53227 91.65926 91.90734 92.0335 92.40849 92.65913 92.72189 93.03664 93.29007 93.41556 93.67035 93.73327 94.05249 94.11584 94.43701 94.50081 94.82393 94.88832 95.14878 95.27863 95.54062 95.93564 96.00197 96.33369 96.40092 96.73499 96.80315 97.13958 97.20869 97.47799 97.81828 97.88856 98.23129 98.30263 98.5758 98.72003 98.99446 99.14082 99.56497 99.84181 99.91684 100.2702 100.3463 100.7017 100.7787 101.136 101.214 101.4947 101.6523 101.9336 102.093 102.375 102.6577 102.8188 103.102 103.5484 103.7128 103.9967
129.7641 129.2609 129.6267 128.6167 129.08 128.0401 128.5923 127.5023 128.8387 127.7446 128.5758 127.4611 128.4478 127.8783 128.4154 127.8018 128.6014 128.0117 129.2039 128.5424 129.9729 126.8958 126.6927 122.5095 122.0148 117.4914 115.1512 108.8728 105.3654 97.24927 92.77792 89.01715 81.82375 78.78939 73.68487 70.96419 68.60124 61.94144 58.56878 53.14072 51.58536 50.20203 49.86375 50.5927 51.87987 54.34295 54.51237 53.75204 53.44635 53.51643 54.06631 54.76987 56.20563 56.68505 57.0859 57.68535 58.16109 59.12186 60.24901 62.16095 62.71175 62.86191 62.89249 64.2746 65.03626 65.79632 66.75767 68.03201 69.18716 70.13005 71.38177 70.62355 68.78374 61.87811 63.66668 71.07106 79.72339 80.67506 81.08777 80.23459 80.64536 80.59012 80.81246 80.61067 80.80459 80.6413 80.67604 80.56245 80.56807 80.50683 80.51694 80.50877 80.53043 80.59796 80.62088 80.69633 80.74767 80.84801 80.90825 80.96443 81.09969 81.17047 81.31934 81.40442 81.56429 81.66323 81.74749 81.94373 82.0312 82.24252 82.55676 82.64755 82.79131 82.97462 83.1283 83.3113 83.47404 83.64221 83.82655 84.00276 84.18449 84.36813 84.54678 84.73705 84.82528 85.10857 85.19495 85.56632 85.77266 85.93865 86.14954 86.31156 86.52649 86.68453 86.903 86.98056 87.27875 87.35437 87.65353 87.8808 87.95443 88.2569 88.32883 88.63183 89.0054 89.07426 89.30984 89.44546 89.68259 89.81583 90.05446 90.12025 90.4259 90.49081 90.79701 90.86121 91.16817 91.23186 91.47636 91.60309 91.849 92.2225 92.4714 92.59733 92.84761 92.97366 93.22533 93.35185 93.60504 93.66858 93.98706 94.05109 94.37157 94.43616 94.69386 94.82407 95.08336 95.21504 95.60947 95.87199 95.93935 96.27124 96.33954 96.67381 96.94064 97.07991 97.34832 97.41873 97.75946 97.83092 98.17422 98.24677 98.51926 98.666 98.93984 99.36387 99.51486 99.79114 99.86741 100.2215 100.2988 100.6549 100.7332 101.0125 101.1707 101.4509 101.8115 101.8918 102.2541 102.3352 102.6174 102.781 103.2288 103.512 103.5952
128.1387 127.8609 127.2928 127.6611 127.5403 126.9734 126.9171 126.3216 125.6855 126.3848 125.0884 125.9323 124.5785 125.5462 124.8068 125.1375 124.3417 125.0561 124.355 126.0922 124.0323 124.7811 120.9676 120.9082 117.755 117.0392 112.3824 109.2133 102.1255 97.83406 90.11015 85.84064 82.31358 75.75768 72.84599 67.41753 64.25791 61.52785 55.30894 53.17809 50.7995 50.15291 50.06772 50.7876 53.38642 54.32272 54.03961 53.87529 53.65406 53.65865 53.80498 55.22789 55.87721 56.72827 57.11477 57.719 58.52051 58.81512 59.94955 61.7286 63.07521 63.18109 63.40714 64.18619 65.46711 65.85488 66.41683 68.04757 68.8419 69.6827 70.99636 71.5572 68.82417 63.97028 61.58168 67.52354 81.87492 83.55919 82.65485 82.40849 81.57098 81.56609 81.20558 81.20982 81.00407 80.92033 80.78313 80.69485 80.61972 80.59483 80.549 80.54655 80.56068 80.63367 80.67044 80.70985 80.80266 80.8525 80.9675 81.02614 81.09619 81.22714 81.30916 81.45244 81.54643 81.69965 81.80531 81.88573 82.08302 82.16623 82.46176 82.59697 82.76981 82.91464 83.15393 83.24204 83.48981 83.57739 83.74458 83.91917 84.09383 84.26619 84.44787 84.53323 84.80551 84.88937 85.16595 85.52861 85.60922 85.81268 85.97163 86.17952 86.33501 86.54686 86.62336 86.91439 87.13287 87.28162 87.50301 87.64854 87.87267 87.94424 88.24167 88.31181 88.67871 88.90952 89.04504 89.27773 89.41103 89.64541 89.77682 90.01288 90.07794 90.38036 90.44473 90.74806 90.81191 91.05282 91.35887 91.42226 91.72961 92.1015 92.16467 92.41171 92.53814 92.78671 92.91354 93.1637 93.29128 93.54305 93.60723 93.92499 93.98972 94.30969 94.37508 94.63162 94.76352 95.02176 95.41534 95.74432 95.81236 96.07529 96.2128 96.47728 96.61676 96.88287 96.95345 97.29205 97.36363 97.70496 97.77764 98.12141 98.19518 98.4671 98.61632 99.04098 99.31555 99.39201 99.74473 99.82224 100.1771 100.4547 100.6125 100.8912 100.9709 101.3306 101.4112 101.7727 101.8542 102.1353 102.2997 102.5812 103.0294 103.1971 103.4797
126.7313 126.9833 126.3808 126.1069 125.4871 125.2829 124.6351 124.481 124.3765 122.9272 123.62 122.1109 122.9347 121.2479 122.1354 121.1863 121.3259 120.4196 121.1475 120.2735 121.6269 118.614 118.9509 117.4734 116.1585 114.081 112.2493 106.3301 102.5275 95.10131 90.70399 87.00387 79.41116 76.15925 69.71828 66.57655 60.44552 57.35052 55.02101 51.80413 50.90875 49.98582 50.1016 52.07799 53.43432 54.54401 54.20673 53.97139 53.81145 53.82478 53.69496 53.93836 55.0443 55.07911 56.73565 58.76778 59.04755 60.06566 60.08406 62.48162 63.31126 63.83995 64.30746 65.23349 65.8036 65.90233 66.79943 67.65747 68.88858 69.36616 71.31622 71.66324 70.55724 66.62961 62.3031 65.25478 79.77594 83.15422 82.96601 82.48874 82.18295 81.69421 81.52721 81.3409 81.09624 80.9764 80.78108 80.71248 80.60522 80.56738 80.55344 80.5314 80.55312 80.62146 80.64853 80.73765 80.77774 80.88928 80.93939 81.06924 81.12743 81.21004 81.33836 81.4304 81.56973 81.67152 81.74529 81.93092 82.0081 82.20619 82.49515 82.63005 82.7132 82.93947 83.02307 83.25808 83.34164 83.50036 83.66753 83.83376 83.99937 84.17268 84.33638 84.51628 84.5975 84.86365 84.94361 85.29276 85.48886 85.64429 85.84512 85.99757 86.20273 86.48682 86.56147 86.7738 86.92081 87.13634 87.2804 87.49892 87.56993 87.86157 87.93134 88.22415 88.58648 88.65381 88.88184 89.01501 89.245 89.3764 89.6082 89.73814 89.97172 90.03619 90.33568 90.57289 90.70046 90.9393 91.00285 91.30676 91.37015 91.73882 92.04584 92.10924 92.35455 92.48163 92.72862 92.85643 93.10512 93.16943 93.48431 93.54914 93.86632 93.93176 94.25143 94.31761 94.57305 94.8968 95.29045 95.35858 95.61899 95.75664 96.01875 96.15837 96.42208 96.56375 96.82922 96.90085 97.23999 97.31277 97.65462 97.72843 97.99835 98.14778 98.4192 98.8436 98.99736 99.2714 99.54635 99.7025 99.97864 100.1368 100.4141 100.494 100.8527 100.9336 101.2941 101.3759 101.7381 101.8209 102.1014 102.2682 102.7178 102.9995 103.1696
125.9013 124.5826 124.8234 124.1525 123.7944 123.0972 122.7921 122.056 120.9765 121.5289 119.8683 120.5455 118.7688 119.5002 118.4809 118.1803 117.0764 117.2412 116.3641 116.841 117.9271 116.4103 115.16 113.6792 113.5808 113.37 109.5831 106.6526 100.1602 95.81036 88.6241 84.22987 80.82772 73.47489 70.1963 63.23473 59.93118 57.02374 52.70441 51.79799 50.36831 49.98499 50.76623 52.03958 54.04666 54.46163 54.07714 54.05935 53.99022 53.62394 53.4811 53.82976 53.818 54.72074 55.89421 58.28136 60.66898 61.02371 62.64729 64.33726 64.56193 65.14562 65.57906 65.68625 66.39711 66.16215 66.27512 68.11336 68.4663 69.34292 69.87001 70.71774 70.42883 68.87746 67.43416 65.4088 76.96306 78.89662 81.71651 81.56154 81.67384 81.41631 81.24253 81.05208 81.03539 80.84367 80.72691 80.60726 80.53491 80.53578 80.46162 80.49562 80.48465 80.57532 80.64567 80.67653 80.78967 80.83231 80.9623 81.01381 81.10074 81.21622 81.30981 81.43687 81.5377 81.67401 81.78249 81.89366 82.04231 82.16206 82.44357 82.52185 82.73627 82.8154 83.03854 83.11797 83.34904 83.42842 83.58675 83.74545 83.91081 84.0683 84.24032 84.31873 84.57443 84.65189 84.91241 85.25389 85.44717 85.52306 85.79597 85.87053 86.14661 86.21994 86.49887 86.571 86.78057 86.92294 87.13571 87.2757 87.49156 87.56076 87.84798 87.91609 88.2717 88.56162 88.62778 88.85333 88.98444 89.212 89.50653 89.57122 89.8027 89.93117 90.16444 90.29208 90.52716 90.6543 90.89119 90.95459 91.25655 91.62358 91.68709 91.92908 92.0563 92.30001 92.42795 92.67348 92.80237 93.04973 93.11459 93.42886 93.67956 93.81108 94.06363 94.12997 94.45099 94.51817 94.90997 95.23648 95.30553 95.56516 95.70488 95.96619 96.10789 96.3709 96.44262 96.77953 96.85235 97.19203 97.26592 97.60833 97.68333 97.95273 98.1046 98.72434 98.80173 99.15292 99.23141 99.50586 99.66454 99.94015 100.1009 100.3776 100.4589 100.8183 100.9005 101.2617 101.3448 101.7077 101.7917 102.0717 102.5216 102.6926 102.9737
123.564 123.7013 122.247 122.4689 121.7249 121.2647 120.4832 120.0536 119.6488 117.8647 118.3879 116.5134 117.1235 114.9635 115.5479 116.2267 113.895 114.9953 113.1804 114.5071 113.3616 112.6477 111.0806 110.6896 110.0987 110.4693 109.5415 104.7942 101.0091 94.21806 89.64377 86.19556 78.40737 75.02439 67.34109 63.80311 56.90881 54.34903 52.62657 51.16378 50.3822 49.98083 51.58739 52.47609 53.52472 53.24693 53.71572 53.69268 53.84323 53.50505 53.5426 53.80227 53.95717 54.01727 56.57311 58.26728 60.31713 62.30093 63.20191 64.80468 65.09508 65.80138 65.9351 66.67245 66.70421 66.56086 66.55025 66.9318 68.06017 68.38058 69.35851 69.69861 70.44643 71.97224 70.54014 71.14964 74.95502 77.93757 78.70381 80.439 80.36525 80.7405 80.97532 80.7854 80.71454 80.56847 80.4998 80.40057 80.37848 80.32443 80.38586 80.34109 80.41863 80.51784 80.54028 80.66096 80.69731 80.83319 80.87938 81.02649 81.07999 81.1787 81.29582 81.39881 81.56736 81.63354 81.74284 81.88142 81.99761 82.14117 82.41158 82.54233 82.61715 82.82954 82.90495 83.12503 83.20068 83.42793 83.50341 83.66132 83.81239 83.97691 84.12695 84.29774 84.37253 84.62325 84.804 85.13911 85.28609 85.47734 85.5502 85.81808 85.88992 86.1611 86.23199 86.43565 86.57595 86.78308 86.92123 87.13165 87.26805 87.48146 87.54903 87.83217 88.18359 88.2494 88.47035 88.75906 88.8242 89.11435 89.17891 89.47052 89.53461 89.76389 89.89145 90.12262 90.24969 90.4828 90.54626 90.84462 90.908 91.2717 91.57389 91.6376 91.87802 92.00595 92.24823 92.37714 92.62131 92.86714 92.99738 93.24506 93.37661 93.62616 93.75922 94.01068 94.07788 94.39877 94.7906 94.85966 95.18628 95.2563 95.51514 95.65685 95.91748 96.06131 96.32366 96.39648 96.7339 96.80785 97.1481 97.41512 97.56612 97.83478 97.91121 98.33583 98.68538 98.76402 99.03671 99.19564 99.46963 99.63078 99.90591 100.0691 100.3455 100.4279 100.7881 100.8715 101.2334 101.3177 101.5966 101.7666 102.4119 102.498 102.8652
122.7425 121.2078 121.3191 120.5315 119.9144 119.09 118.5061 117.6289 116.0876 116.4709 114.4853 114.9646 114.4241 113.2612 113.759 111.199 111.8754 109.7269 110.9468 108.9008 109.8187 108.348 107.587 106.5561 107.8926 108.3533 107.1189 105.2579 99.57275 95.28999 88.29794 83.8283 80.35944 72.36523 67.98215 60.7167 57.10539 52.67814 51.75305 51.22766 49.9592 49.97966 51.28259 52.03608 52.47857 52.54642 52.67492 53.17285 52.98694 53.14781 53.44015 53.99118 54.03331 54.06944 54.98235 57.45098 60.92378 61.88044 63.64241 65.19252 65.33444 65.64057 65.72062 66.49341 66.80951 66.71861 66.62892 67.03656 67.50891 68.72773 68.83407 70.17945 71.0252 72.30572 73.38276 72.96093 74.07349 76.28459 77.83992 79.34622 79.45427 80.14136 79.90844 80.25148 80.11914 80.19937 80.09479 80.146 80.08043 80.19313 80.12413 80.23572 80.22904 80.38028 80.49422 80.52588 80.67428 80.71675 80.87296 80.97849 81.08518 81.19168 81.24957 81.41736 81.47946 81.65459 81.71986 81.83467 81.96983 82.09018 82.35532 82.49654 82.62918 82.70078 82.911 82.98297 83.20003 83.27209 83.4231 83.56769 83.72518 83.96024 84.03296 84.27373 84.34595 84.51961 84.66359 84.98561 85.17023 85.2412 85.50085 85.57103 85.83437 85.90381 86.17065 86.23935 86.44077 86.57695 86.7818 86.91644 87.1246 87.19144 87.46905 87.53511 88.03083 88.16138 88.38005 88.44487 88.73044 88.79482 89.08206 89.146 89.37125 89.49857 89.72583 89.85271 90.08194 90.20865 90.43989 90.50325 90.79985 91.16191 91.22559 91.52651 91.59052 91.8295 92.13464 92.19925 92.50684 92.57202 92.81665 92.94809 93.19464 93.32759 93.57613 93.71069 93.9612 94.02924 94.41916 94.74302 94.81302 95.06917 95.21082 95.46887 95.61269 95.87262 96.01862 96.2804 96.5435 96.69229 96.95715 97.10819 97.37466 97.45114 97.79626 98.22163 98.30035 98.6506 98.73044 99.00262 99.16405 99.43755 99.60114 99.87585 99.95848 100.3174 100.401 100.762 100.8466 101.2093 101.4876 101.5732 102.0247 102.3913 102.4786
120.3428 120.3491 118.6769 118.753 117.8893 117.1478 116.2328 115.4976 113.7512 114.0806 113.0331 112.3537 111.201 110.3244 108.9897 109.3759 106.8079 107.6661 105.6686 106.7131 103.9664 104.6057 103.1628 103.7244 103.4985 105.5288 106.3335 103.0938 100.2046 93.42159 89.1598 81.23109 77.59413 73.14308 65.42249 61.1541 54.87053 52.79425 51.80173 50.40322 49.96672 49.93073 52.42496 53.20181 53.27901 53.32595 52.80444 53.17458 52.92492 53.05209 53.48349 53.59236 53.81774 53.92051 55.66791 58.17655 59.71939 62.44229 63.09152 64.37171 64.92943 65.00031 65.38032 65.96072 66.47177 66.46358 66.6266 66.89733 67.83534 68.4047 69.0528 69.60606 70.41679 71.24538 72.53191 73.19194 74.50111 75.22885 76.72543 77.51965 78.59264 78.70215 79.33815 79.23402 79.62065 79.54666 79.74091 79.68326 79.83455 79.80544 79.96899 79.95512 80.10535 80.27898 80.34253 80.47713 80.60126 80.69005 80.80988 80.91211 81.02885 81.08414 81.2561 81.31525 81.49111 81.55327 81.73351 81.79782 81.9171 82.04898 82.30679 82.43533 82.5034 82.70512 82.77362 82.98152 83.05024 83.2644 83.41412 83.48415 83.70942 83.77924 84.01038 84.07986 84.2467 84.38566 84.55823 84.87431 85.01158 85.19463 85.26299 85.51848 85.58627 85.84564 85.91293 86.10864 86.24254 86.44198 86.57456 86.77742 87.04926 87.11504 87.32384 87.45458 87.79564 88.00974 88.13829 88.3549 88.41891 88.70171 88.76537 89.05005 89.11343 89.33675 89.46332 89.68868 89.81504 90.0425 90.16895 90.39857 90.46191 90.9903 91.11776 91.35326 91.4173 91.71906 91.78357 92.08779 92.15289 92.45985 92.52564 92.76912 92.90186 93.14738 93.28177 93.52934 93.59726 93.91518 94.3051 94.37498 94.69899 94.76992 95.0254 95.35412 95.42642 95.75819 95.83162 96.09229 96.24104 96.50357 96.65462 96.9189 97.07228 97.3383 97.41595 97.84054 98.18894 98.26884 98.53929 98.70089 98.9727 99.13647 99.40959 99.57559 99.84995 100.1251 100.2935 100.5697 100.7399 101.0171 101.1893 101.4671 101.9197 102.0074 102.3747
119.5532 117.8207 117.7854 115.9634 115.9917 116.0812 114.1501 114.3024 112.4283 111.3363 110.4899 109.3295 108.3939 107.0839 105.948 104.5722 104.9728 102.6742 103.5733 101.0852 101.7907 100.2239 99.79398 99.08932 101.137 103.4005 104.1988 102.6087 97.30348 93.82487 86.11491 82.40092 78.2036 70.32344 65.87597 58.24321 55.05266 51.75758 51.05965 50.34156 49.98168 49.86521 51.59724 52.65862 52.99123 53.31643 53.24698 53.66192 53.39056 53.45926 53.23628 53.4801 53.65166 53.97081 54.94432 56.40235 60.66066 62.09074 63.67342 64.4521 64.62081 64.82419 65.30496 65.70581 66.2541 66.52822 66.82788 67.11074 67.9023 69.31219 69.28326 70.36638 70.28222 70.55608 71.64542 71.86298 73.66338 75.1423 75.577 76.67213 77.14855 77.99854 78.13582 78.72052 78.71794 79.11681 79.09357 79.37056 79.35584 79.58462 79.58864 79.7883 79.97938 80.19541 80.23264 80.38133 80.47011 80.60911 80.7108 80.84202 80.95248 81.07802 81.13582 81.31686 81.37718 81.5592 81.62127 81.74196 81.86844 81.9912 82.24567 82.3752 82.50549 82.57085 82.77092 82.90898 83.04211 83.1859 83.25278 83.46873 83.53564 83.75755 83.8243 84.05181 84.11841 84.28442 84.41783 84.72225 84.89905 85.03137 85.21298 85.27907 85.53087 85.59657 85.85241 85.9178 86.11182 86.3745 86.43983 86.70549 86.77032 87.03888 87.10337 87.31016 87.64806 87.77558 87.98776 88.05133 88.32939 88.39272 88.67294 88.73602 89.01843 89.08144 89.30296 89.42881 89.65252 89.7785 90.00438 90.23219 90.35881 90.71584 90.94785 91.07582 91.30997 91.37436 91.67514 91.74007 92.04366 92.10928 92.34962 92.48209 92.72457 92.85858 93.10319 93.23904 93.48579 93.55455 93.94231 94.2634 94.51593 94.58702 94.91305 94.98523 95.31436 95.38768 95.71989 95.7944 96.05457 96.20554 96.46754 96.62082 96.88464 97.04037 97.30597 97.73116 97.8111 98.16028 98.24139 98.51138 98.67539 98.94675 99.30217 99.38569 99.74344 99.82803 100.1028 100.2735 100.5493 100.7221 100.9987 101.0858 101.5388 101.9053 101.9942
117.1446 117.0074 115.9945 115.0424 115.0117 113.0147 113.0429 110.9056 108.7053 108.8493 107.6616 106.6305 105.3473 104.1734 102.7946 102.9614 100.3173 100.8056 98.218 98.90561 95.87398 96.56464 95.37876 96.42156 98.70979 101.301 100.9416 99.57255 96.93191 90.32611 86.57656 78.80508 74.81728 70.57812 62.21719 58.37684 52.979 51.71676 50.96069 50.00897 49.98288 49.79914 52.65599 53.37594 52.79789 52.87683 52.94716 53.54446 53.65514 53.82949 53.5435 53.42718 53.74882 53.96107 54.93421 57.49563 59.49827 62.95947 63.59558 64.76654 65.21408 65.59957 65.44418 66.24318 66.57829 66.80249 66.87332 67.08916 68.86203 69.59093 70.65093 71.00567 71.06165 70.78017 70.99479 71.78323 73.68816 74.08188 74.95943 75.58065 76.45853 76.82622 77.5478 77.72327 78.26288 78.29954 78.73709 78.75523 79.09087 79.35831 79.37393 79.62433 79.6541 79.93115 80.15617 80.20532 80.36862 80.47446 80.62459 80.73763 80.87743 80.93562 81.12707 81.18698 81.37494 81.43594 81.62231 81.6839 81.80801 81.93215 82.24687 82.30998 82.50313 82.56641 82.70015 82.82739 82.96607 83.09335 83.2374 83.30132 83.51444 83.57843 83.7972 83.86114 84.08548 84.14944 84.31477 84.61379 84.74203 84.91776 84.98196 85.22615 85.40979 85.53873 85.72673 85.85533 86.04731 86.1115 86.37093 86.43481 86.69743 86.76101 86.96303 87.08998 87.42125 87.62897 87.75476 87.96519 88.02806 88.30373 88.36642 88.64439 88.70706 88.92468 89.20714 89.26987 89.55458 89.61748 89.90457 89.96768 90.19401 90.54924 90.67685 90.90752 90.97169 91.26898 91.33374 91.63377 91.6992 92.00224 92.06844 92.30773 92.44141 92.68288 92.81833 93.0621 93.19951 93.44552 93.83319 94.08293 94.22518 94.47705 94.54906 94.87546 94.94865 95.27823 95.35258 95.68541 95.76099 96.02068 96.17384 96.43535 96.59087 96.8543 96.93311 97.35733 97.7045 97.78561 98.13562 98.40498 98.4875 98.84126 98.92493 99.2811 99.36584 99.63902 99.81015 100.0844 100.2576 100.5331 100.7082 100.9844 101.4384 101.5276 101.8949
116.4068 115.2723 114.2963 113.1415 112.099 112.0018 109.8043 109.7626 107.4359 106.2161 105.048 103.767 102.552 101.2004 99.92854 98.57213 98.72945 95.98798 96.2515 95.22616 93.71221 94.42714 92.4256 94.13176 93.83655 96.43238 98.22037 97.09726 93.41438 90.0756 82.72219 78.77832 70.62263 66.29393 62.1569 55.03564 52.92153 50.88153 50.29541 50.02264 49.7906 49.72466 52.98479 54.33059 53.59904 53.55102 53.19287 53.10561 53.21381 53.26553 53.46233 53.55051 53.76678 53.89616 54.43093 57.57867 60.52469 62.01884 63.57941 64.89124 65.26302 65.74473 66.05562 66.3244 66.71436 66.82389 67.05841 67.61974 68.77518 69.78767 70.39723 70.90241 71.2925 71.47699 71.26374 71.42053 72.88564 73.957 74.24326 75.01308 75.49738 76.24829 76.58858 77.22437 77.33347 77.93678 78.37639 78.46547 78.81108 78.89275 79.17749 79.22046 79.51332 79.83223 79.88788 80.13742 80.19649 80.37001 80.49026 80.64828 80.77057 80.91643 80.97761 81.17635 81.23766 81.43045 81.49161 81.68056 81.80676 81.86787 82.11617 82.30517 82.36603 82.49664 82.61861 82.75317 82.87497 83.01411 83.13593 83.28015 83.34142 83.55177 83.61311 83.8291 83.89055 84.05006 84.17373 84.46236 84.63233 84.86855 84.9312 85.10909 85.23471 85.41712 85.54268 85.72943 85.79231 86.04547 86.10823 86.36482 86.42746 86.68735 86.74988 86.95026 87.27846 87.40303 87.60909 87.6714 87.94234 88.00463 88.27805 88.49152 88.61628 88.83214 88.89458 89.17515 89.23772 89.52087 89.58369 89.86941 89.93256 90.28461 90.51181 90.63986 90.86935 90.93391 91.23035 91.29552 91.595 91.66095 91.96349 92.03024 92.26863 92.57628 92.64423 92.9552 93.02416 93.26877 93.65533 93.7972 94.04627 94.19041 94.4416 94.51465 94.84146 94.91563 95.24577 95.32118 95.5784 95.73128 95.99052 96.14583 96.40692 96.56482 96.82782 97.25273 97.51859 97.68176 97.94933 98.03192 98.38393 98.46763 98.82222 98.90704 99.26401 99.34993 99.62276 99.79626 100.0702 100.2459 100.5208 100.6094 101.0636 101.4301 101.5204
114.7331 113.7419 112.4632 111.4003 111.1832 108.9336 108.7614 106.3624 103.7227 103.6771 102.3809 101.0715 99.7312 98.42075 97.0754 95.79172 95.86995 94.40722 92.78244 91.14065 90.25058 89.11471 90.31503 89.3597 91.45721 94.02435 93.5285 94.03734 91.88039 86.07355 82.26523 74.55217 70.32582 66.13365 57.76311 54.78444 51.43094 50.87956 50.01889 49.9889 49.81878 50.19463 54.11123 54.54004 54.40412 53.93585 53.82903 53.34066 53.58084 53.43227 53.38507 53.54478 53.73002 53.83228 54.44853 56.53288 58.53559 62.49693 63.16 64.74056 65.41705 65.83732 65.96097 66.56216 66.74777 66.82646 66.90813 67.37031 68.61372 69.35464 69.34984 70.32045 71.30456 71.72188 71.67985 71.64288 72.86465 73.1476 74.05785 74.30269 74.99434 75.91124 76.09703 76.87632 77.00591 77.53185 77.71584 78.1394 78.28326 78.63121 78.76359 79.05783 79.12231 79.51122 79.80351 79.8707 80.07207 80.2048 80.38495 80.51662 80.6797 80.80904 80.95885 81.10127 81.22568 81.36067 81.48312 81.61337 81.6738 81.86185 82.10863 82.16765 82.35549 82.41402 82.5455 82.66251 82.79759 82.91428 83.0538 83.11237 83.31493 83.37365 83.58157 83.64056 83.85409 84.01227 84.07251 84.35614 84.58478 84.64551 84.81793 84.93993 85.11696 85.23923 85.42065 85.54333 85.72889 85.79042 86.04098 86.1025 86.35663 86.4182 86.67568 86.73726 87.05933 87.26107 87.38431 87.58884 87.79561 87.91938 88.12876 88.25266 88.46455 88.58867 88.80301 88.86523 89.14428 89.20677 89.48851 89.55136 89.77264 90.12283 90.25034 90.4763 90.60498 90.83337 90.89823 91.19405 91.2597 91.55872 91.79362 91.86038 92.16463 92.2323 92.53987 92.60854 92.91956 92.98933 93.37462 93.62089 93.76457 94.01305 94.08583 94.40978 94.48375 94.81104 94.88622 95.21691 95.29344 95.55025 95.70529 95.96408 96.30305 96.38243 96.64445 97.06886 97.2319 97.49741 97.66302 97.93018 98.0139 98.36681 98.45168 98.80707 98.89307 99.25089 99.33803 99.61045 99.78638 100.06 100.238 100.5125 100.9677 101.2438 101.4257
113.3629 111.9815 110.9069 109.4564 108.2943 107.9949 105.5447 105.2958 102.5336 99.88128 99.77896 99.73067 97.03046 97.03321 94.36386 94.40694 93.06117 91.31076 89.54303 87.77184 86.36668 86.18441 85.47681 87.14624 86.73298 89.42133 91.49638 90.77458 88.03912 84.73966 77.85287 73.79214 65.5893 61.17098 57.4902 52.39766 51.36067 50.29879 49.98615 49.98266 49.87999 50.12499 53.85954 54.159 54.19278 54.02898 53.63029 53.47333 53.88475 53.77296 53.46986 53.71235 53.785 53.94505 54.13437 56.41785 59.23697 61.73028 63.51915 64.9296 65.28525 65.74493 65.8551 66.10975 66.79832 66.63681 67.14607 67.4696 68.13078 68.72035 68.90999 69.65476 70.92378 71.70046 71.61802 71.4632 72.23474 73.05726 73.65541 73.89536 74.76909 74.99093 75.827 76.00882 76.73161 76.87012 77.35867 77.57834 77.9873 78.17355 78.52001 78.60457 78.98969 79.41345 79.49221 79.80025 79.87645 80.08232 80.22833 80.41196 80.6506 80.71783 80.87407 81.00395 81.14877 81.27431 81.41103 81.53244 81.664 81.72327 81.9689 82.1549 82.21176 82.34131 82.45429 82.58633 82.69846 82.83397 82.94579 83.08557 83.14177 83.34222 83.48984 83.60455 83.75739 83.87276 84.03075 84.30997 84.36864 84.59503 84.65405 84.82578 84.94467 85.12086 85.24043 85.42096 85.54112 85.72562 85.78596 86.03426 86.09482 86.34679 86.40744 86.60187 86.92098 87.18196 87.24312 87.50706 87.56836 87.77367 87.89655 88.10446 88.22767 88.43817 88.50001 88.77479 88.8369 89.11458 89.17712 89.45759 89.52055 89.86749 90.08994 90.21788 90.44281 90.66962 90.79955 91.02869 91.16019 91.39178 91.52509 91.75902 91.82642 92.13055 92.19894 92.50646 92.57593 92.81688 93.20093 93.34402 93.58972 93.73521 93.98321 94.05696 94.38136 94.45632 94.78415 95.03805 95.19179 95.44787 95.52577 95.86221 95.94142 96.28121 96.36172 96.78619 97.04959 97.21506 97.48022 97.64816 97.91496 97.99987 98.35359 98.43962 98.79584 98.88304 99.15387 99.33002 99.60211 99.78047 100.0537 100.4177 100.7829 100.9654 101.241
111.6795 110.6017 109.0476 107.8759 106.2337 104.9713 104.5884 101.9539 100.0456 98.69881 98.53999 95.83186 95.72237 92.99667 92.99416 90.32381 90.27699 88.68084 86.37086 84.63925 83.34273 82.26243 83.39494 82.38831 84.4361 87.1526 87.00288 87.73225 85.64826 80.21359 77.17147 68.80468 65.06429 60.67095 54.02437 52.07806 50.89366 50.30787 49.94564 49.99034 49.9167 50.58519 54.18942 54.3147 54.0679 53.82547 53.738 53.80206 53.9155 53.67823 53.55434 53.51114 53.82111 53.90337 54.40975 55.5453 59.90342 61.5853 63.32234 65.10318 65.52904 65.7915 65.8298 66.1582 66.36214 66.81516 67.04127 67.71117 68.29729 68.74216 68.63298 69.18934 70.5208 71.35937 71.57829 71.37397 72.26025 72.75342 73.21394 73.76328 73.9908 74.80571 75.01889 75.79314 75.97266 76.5024 76.79974 77.25949 77.50781 77.90368 78.12289 78.46519 78.56537 79.05829 79.41327 79.50161 79.73621 80.03116 80.10909 80.37567 80.44924 80.69205 80.76144 80.91879 81.05058 81.19627 81.32126 81.45854 81.57773 81.70979 81.9539 82.00977 82.19404 82.24864 82.37869 82.48695 82.61942 82.72681 82.86273 83.05576 83.11015 83.25298 83.36279 83.51059 83.62129 83.77415 83.83009 84.1002 84.3194 84.3765 84.60095 84.65855 84.82973 84.94598 85.12155 85.23882 85.41853 85.47763 85.72014 85.77948 86.02591 86.21545 86.33556 86.52837 86.8447 86.90512 87.16428 87.22489 87.42612 87.54784 87.75181 87.87393 88.08058 88.20334 88.41251 88.47421 88.74767 88.80976 89.0862 89.14878 89.36522 89.71026 89.99487 90.05884 90.34669 90.41142 90.63719 90.76799 90.99625 91.12881 91.3596 91.49399 91.7272 91.79527 92.09937 92.16844 92.47607 92.54631 92.92909 93.17181 93.31677 93.56189 93.70923 93.95674 94.20578 94.35637 94.60765 94.76094 95.01442 95.09216 95.42596 95.50497 95.84223 95.92256 96.26307 96.6059 96.77109 97.03421 97.20206 97.4669 97.55183 97.90363 97.9897 98.34419 98.43144 98.78853 99.05882 99.14742 99.50806 99.59775 99.9606 100.0513 100.5078 100.7822 100.967
110.4677 108.8317 107.6609 105.9088 104.6351 104.1262 102.3463 100.9895 97.84777 96.20692 94.85174 94.63396 91.87173 91.70438 88.93412 88.92818 87.56837 85.75871 84.01356 81.70316 80.1955 79.46992 78.66997 80.21072 79.89788 82.91859 85.01839 84.30013 81.61505 79.28165 71.40097 67.96524 59.29085 56.22702 53.40329 51.2587 50.95324 49.98193 49.94769 49.94505 49.9794 50.39806 54.00582 54.45151 54.14252 53.92315 53.65181 53.84782 53.9044 53.78055 53.63112 53.55659 53.64898 53.9268 54.03542 56.39948 58.18938 61.04168 63.76838 64.74454 65.22971 65.45858 65.76595 65.84751 66.56345 67.00986 67.30488 67.7332 68.23628 68.45664 68.36055 69.51759 70.09808 71.06552 71.10989 71.3179 72.08241 72.49869 72.93522 73.14492 73.87782 74.0976 74.86674 75.07292 75.79974 75.97862 76.47234 76.78307 77.22025 77.49228 77.87585 78.12085 78.45676 78.97517 79.24834 79.43961 79.67926 79.76797 80.06754 80.14964 80.41876 80.49466 80.7384 80.8087 80.96564 81.09722 81.24242 81.36533 81.50232 81.56076 81.8059 81.9902 82.04385 82.22599 82.35592 82.40863 82.59291 82.6451 82.83224 82.88434 83.023 83.12802 83.27124 83.3772 83.52527 83.63242 83.78535 84.05187 84.10698 84.32465 84.38039 84.54676 84.65959 84.83041 84.94454 85.1196 85.35562 85.41389 85.59543 85.71281 85.89796 86.01608 86.20458 86.26401 86.57467 86.82898 86.88894 87.14633 87.20654 87.40652 87.52749 87.73022 87.85196 88.05738 88.17986 88.38779 88.44942 88.72173 88.93428 89.05923 89.27428 89.61795 89.68151 89.96544 90.02977 90.317 90.38216 90.60707 90.73882 90.96628 91.09991 91.3299 91.3976 91.69814 91.76686 92.07101 92.14088 92.44872 92.75952 92.90369 93.14596 93.46338 93.53732 93.78362 93.93362 94.18225 94.33493 94.58588 94.74129 94.99448 95.07325 95.40778 95.48791 95.8259 95.90733 96.33127 96.59222 96.75974 97.02264 97.19279 97.45737 97.54341 97.89613 98.16327 98.33875 98.60735 98.69601 99.05518 99.14496 99.50645 99.59733 99.96097 100.326 100.5113 100.7853
108.7904 108.2117 105.7939 105.194 102.5673 101.98 100.6053 98.67111 95.43842 94.07137 92.40166 91.02936 90.7193 87.86926 87.64619 84.88963 84.85479 83.42773 81.23225 79.47623 77.40604 76.07642 76.03544 77.7391 77.62602 80.65409 82.45725 81.16245 80.37924 73.69508 70.57153 62.04754 58.5799 52.68826 51.6726 51.26412 50.55207 50.20584 49.99163 49.90933 49.97609 50.8223 54.39246 54.49399 53.87474 53.77671 53.72076 53.87823 53.87705 53.79196 53.74168 53.63084 53.73499 53.84752 54.25759 55.09159 59.28327 61.31025 63.31408 64.21521 64.36279 65.11687 65.35471 66.03543 66.4647 67.31374 67.39211 67.8613 68.20843 68.13031 68.50253 68.95061 70.1125 70.36233 70.98086 71.1893 71.97102 72.30256 72.64424 73.08081 73.28325 73.99873 74.21342 74.94717 75.14891 75.8413 76.02182 76.48819 76.81274 77.23134 77.76106 77.89456 78.24324 78.79321 79.01602 79.28467 79.48785 79.72368 79.81668 80.11646 80.20099 80.46904 80.54585 80.71625 80.85764 81.01273 81.14221 81.28595 81.40543 81.54144 81.78453 81.91455 82.01962 82.14877 82.20014 82.38087 82.43127 82.61363 82.66361 82.84921 82.89929 83.03845 83.1398 83.28346 83.38606 83.53453 83.58665 83.84492 84.05595 84.1098 84.32622 84.38086 84.54704 84.77219 84.82843 85.05848 85.11536 85.34993 85.40739 85.58816 85.70414 85.88842 86.00528 86.19278 86.50106 86.56024 86.813 86.87252 87.12839 87.18825 87.38707 87.50763 87.70925 87.83072 88.03493 88.24118 88.36411 88.57299 88.6971 88.90853 89.03368 89.31074 89.5907 89.65456 89.93797 90.00267 90.22418 90.3551 90.57918 90.71201 90.93869 91.07358 91.30287 91.37122 91.6718 91.74129 92.04558 92.2818 92.66319 92.7355 93.04962 93.12322 93.44115 93.51605 93.7619 93.91399 94.1622 94.31705 94.56766 94.64618 94.97801 95.05785 95.39322 95.47443 95.81323 96.15445 96.32163 96.58231 96.92934 97.01488 97.36485 97.45161 97.71697 97.89235 98.15927 98.33711 98.60548 98.69535 99.05536 99.14633 99.50871 99.60077 100.0583 100.3311 100.5188
108.2584 105.8674 105.18 102.5596 101.8556 99.05673 98.3862 96.94734 93.51766 91.72545 90.38068 90.00163 87.19618 86.76494 83.86267 83.62315 80.98459 80.76126 79.15374 76.6441 76.09498 73.25982 74.06048 73.42196 75.33524 78.38293 78.139 77.49004 74.95776 72.80427 65.06361 61.47093 54.28727 52.4166 51.52066 51.07465 50.67916 50.11804 49.99871 49.79852 49.90747 50.62625 54.38573 54.29175 53.97062 53.85844 53.91577 53.89493 53.81205 53.78108 53.69799 53.67744 53.74472 53.92565 54.0336 55.89184 57.71593 62.49767 63.66358 63.74181 63.89012 64.72538 65.42992 65.97126 66.80069 67.21443 67.31298 67.55966 68.06464 68.26642 68.51023 69.12092 69.41584 70.221 70.43692 70.95806 71.78621 72.04784 72.41594 72.76195 73.21516 73.42036 74.12726 74.33949 75.04707 75.53966 75.72958 76.3734 76.54548 77.12968 77.28586 77.81062 77.95261 78.54962 78.84743 79.08143 79.34303 79.44912 79.78333 79.87855 80.17473 80.25997 80.52386 80.60019 80.76711 80.90598 81.05827 81.26588 81.32552 81.46324 81.70731 81.81224 81.94177 82.04199 82.1711 82.22006 82.3987 82.44687 82.62759 82.6756 82.85983 82.90817 83.04794 83.14607 83.29033 83.39008 83.53902 83.7944 83.84628 84.05646 84.21736 84.32489 84.49016 84.54478 84.76888 84.82438 85.05323 85.10944 85.2859 85.39956 85.57965 85.69448 85.87794 85.99374 86.23872 86.48679 86.5456 86.79693 86.85611 87.05107 87.17039 87.36813 87.62846 87.68898 87.95242 88.01343 88.21859 88.34161 88.54948 88.67367 88.88413 89.22257 89.28596 89.56535 89.62956 89.91251 89.97765 90.19836 90.33023 90.5536 90.68758 90.91364 90.98151 91.27843 91.50897 91.64825 91.88139 92.02306 92.3307 92.64137 92.71458 93.02915 93.1037 93.42219 93.49811 93.74363 93.89771 94.14569 94.30263 94.55289 94.63244 94.96506 95.04601 95.38219 95.46449 96.06218 96.14618 96.49085 96.57624 96.92419 97.01086 97.2743 97.44965 97.71468 97.89252 98.15916 98.33942 98.60748 98.69854 99.05945 99.15166 99.51489 99.87962 100.0677 100.3401
105.6854 103.1471 102.2633 99.48552 98.57294 95.63288 94.75856 93.26984 89.62389 87.70873 86.3945 85.90388 84.00367 82.61705 80.5771 79.24537 77.35171 75.83613 75.16082 71.4143 70.5915 66.99773 67.27467 65.27853 67.41879 70.02409 69.78483 70.32222 68.35986 66.73005 59.74715 56.60708 52.09662 51.47845 51.10922 50.59648 50.14307 49.90616 49.85292 49.96068 50.25443 50.92281 53.85869 53.80939 53.77002 53.82797 53.84945 53.81717 53.76948 53.749 53.7653 53.79569 53.83757 53.94879 54.04115 56.13824 58.32042 61.45596 62.93009 63.72183 64.30118 64.87097 65.11807 65.35538 65.74062 66.10796 66.55003 66.9162 67.3634 67.59013 67.6407 68.38851 68.6122 69.47193 69.77187 70.39594 71.21067 71.72026 71.86531 72.44765 72.63826 73.0946 73.51814 73.99724 74.42971 74.90402 75.32222 75.77441 75.97225 76.58797 76.77136 77.33417 77.50174 78.15981 78.47316 78.74588 79.02205 79.2634 79.506 79.61353 79.93135 80.13281 80.30521 80.48438 80.56116 80.79678 80.86429 81.07743 81.13733 81.33377 81.52159 81.62209 81.752 81.84621 81.97478 82.02036 82.19435 82.23885 82.4142 82.45847 82.63686 82.68158 82.81888 83.00483 83.05145 83.24283 83.29056 83.53659 83.68926 83.78967 83.94675 84.0495 84.21075 84.26316 84.481 84.53448 84.75716 84.81161 84.98363 85.09406 85.26955 85.3814 85.56015 85.67332 86.0394 86.1548 86.34186 86.45832 86.64821 86.76572 86.95842 87.0177 87.27245 87.33228 87.59048 87.65092 87.85149 87.97351 88.17683 88.30026 88.50624 88.83981 88.90295 89.17773 89.24179 89.5204 89.7366 89.80208 90.08684 90.1534 90.44202 90.50963 90.80213 90.87093 91.09775 91.23748 91.46701 91.60931 91.91386 92.2216 92.29522 92.60692 92.68196 92.99777 93.07423 93.3167 93.47202 93.71706 94.04297 94.12271 94.37169 94.53363 94.78491 94.94966 95.20322 95.62643 95.71135 96.0546 96.14096 96.4876 96.57536 96.83659 97.01414 97.27707 97.45714 97.72176 97.9044 98.17052 98.26282 98.62314 98.8916 99.07931 99.44365 99.80959 99.90536
